ncols 195
nrows 81
xllcorner -84.355652
yllcorner 39.1788
cellsize 0.000093
NODATA_value -9999
251.1 251.1 251.1 250.8 250.8 250.5 250.2 249.9 249.5 249.2 249.1 248.6 248.6 248.4 248.3 248.0 248.1 248.1 248.1 247.9 247.4 246.8 246.1 245.4 244.8 244.4 244.9 245.5 246.2 246.8 247.6 248.0 248.4 248.4 248.4 248.5 248.4 248.4 248.2 248.1 247.8 247.7 247.4 246.9 246.9 246.9 247.2 247.4 247.4 247.4 247.4 247.2 247.2 247.2 247.2 247.1 246.4 245.6 243.9 241.7 239.6 238.5 239.1 240.8 242.9 244.6 245.5 246.1 246.5 246.1 246.2 246.2 246.3 247.0 247.5 247.4 247.3 247.0 246.8 246.6 246.8 247.2 248.2 249.0 249.6 250.0 250.2 250.4 250.3 250.2 250.1 250.1 249.7 249.7 249.7 249.8 250.5 250.9 251.5 251.9 252.7 253.4 254.0 254.6 255.4 255.7 256.0 256.3 256.6 257.1 257.2 257.5 257.8 258.0 258.1 258.3 258.4 258.7 259.0 259.8 260.4 261.1 261.7 261.8 262.1 262.1 262.1 262.1 262.1 262.1 261.8 261.5 261.2 261.0 260.7 260.2 259.9 259.5 259.3 259.0 258.7 258.4 258.2 257.6 257.2 256.4 256.1 256.0 255.9 255.7 255.8 255.7 255.7 255.2 255.0 254.2 253.5 253.0 252.8 252.6 252.4 252.5 252.1 252.0 252.0 251.8 252.0 252.0 252.3 252.3 252.3 252.5 252.5 252.7 252.7 252.7 252.6 252.9 253.2 253.1 252.8 252.2 251.5 250.8 250.8 250.9 250.9 250.6 250.3 250.0 249.1 248.7 248.6 248.6 248.4
251.4 251.4 251.4 251.1 251.1 250.8 250.5 250.2 250.1 249.8 249.6 249.2 249.0 249.0 248.7 248.6 248.4 248.4 248.4 248.2 247.9 247.7 247.1 246.5 245.7 245.4 245.5 245.9 246.5 247.3 248.0 248.5 248.7 248.7 248.7 248.7 248.7 248.5 248.4 248.2 248.0 248.0 247.9 247.8 247.8 248.0 248.3 248.4 248.6 248.7 248.5 248.1 248.0 248.0 248.0 247.5 247.1 246.0 244.1 242.0 239.8 238.7 239.2 240.8 243.0 244.9 246.0 246.6 246.9 246.7 246.7 246.5 246.5 246.9 247.5 247.9 247.9 247.8 247.5 247.3 247.3 247.8 248.3 249.1 249.7 250.0 250.4 250.3 250.5 250.7 250.5 250.7 250.5 250.5 250.5 250.5 251.0 251.3 251.7 251.8 252.8 253.4 254.0 254.6 255.5 256.0 256.3 256.6 257.1 257.5 257.7 258.0 258.1 258.4 258.6 258.7 258.7 259.0 259.5 260.4 261.1 261.7 262.1 262.1 262.4 262.4 262.2 262.2 262.2 262.2 262.1 261.8 261.5 261.2 260.9 260.1 259.7 259.3 258.9 258.6 258.5 258.2 258.3 257.8 257.3 256.6 256.3 256.3 256.3 256.0 256.0 256.1 255.9 255.3 254.6 253.6 253.0 252.6 252.6 252.5 252.5 252.3 252.2 252.2 252.2 252.0 252.1 252.3 252.6 252.6 252.8 253.0 252.8 252.8 252.6 252.8 252.9 253.2 253.7 253.7 253.6 252.8 252.2 251.8 251.8 252.3 252.5 252.3 252.0 251.5 250.8 250.5 250.3 250.3 250.2
251.7 251.7 251.7 251.6 251.4 251.1 250.8 250.5 250.5 250.2 250.1 249.8 249.5 249.5 249.2 249.0 248.7 248.7 248.7 248.7 248.8 248.8 248.1 247.7 246.8 246.3 246.1 246.2 246.9 247.8 248.5 249.2 249.2 249.2 249.0 249.0 249.0 248.6 248.7 248.3 248.5 248.7 248.7 248.5 248.7 249.1 249.2 249.4 249.5 249.5 249.2 248.9 248.6 248.4 248.4 247.9 247.5 246.2 244.6 242.6 240.7 239.6 239.7 241.1 243.0 244.7 245.9 246.7 247.2 247.4 247.4 247.2 247.2 247.5 247.9 248.4 248.5 248.6 248.6 248.7 248.3 248.6 248.9 249.1 249.5 249.8 250.2 250.3 250.6 250.9 251.0 251.3 251.5 251.5 251.7 251.5 251.6 251.9 251.8 251.8 252.6 253.2 253.8 254.4 255.3 256.1 256.6 256.9 257.5 258.0 258.1 258.4 258.6 258.7 259.0 259.2 259.4 259.7 260.3 261.0 261.5 262.1 262.4 262.4 262.5 262.5 262.4 262.4 262.4 262.2 262.2 261.9 261.8 261.3 261.0 260.3 260.0 259.3 259.0 258.7 258.5 258.4 258.4 258.1 257.5 256.9 256.6 256.6 256.7 256.3 256.2 255.8 255.5 254.9 254.0 253.2 252.8 252.4 252.4 252.3 252.2 252.1 252.1 252.1 252.1 252.3 252.3 252.6 252.9 253.1 253.3 253.3 252.9 252.7 252.6 252.7 253.2 253.7 254.3 254.5 254.3 253.6 253.0 252.7 252.8 253.5 253.8 254.0 253.9 253.1 252.5 252.0 251.9 251.9 251.9
252.0 252.1 251.8 251.9 251.8 251.4 251.1 251.0 251.0 250.7 250.5 250.2 250.1 249.9 249.6 249.3 249.0 249.0 249.0 249.2 249.3 249.3 249.1 248.8 248.1 247.1 246.6 246.6 246.9 248.0 249.0 249.6 249.6 249.6 249.5 249.3 249.3 249.1 249.0 248.8 249.2 249.5 249.5 249.3 249.5 249.6 249.8 249.9 249.9 249.9 249.6 249.3 249.0 248.9 248.7 248.6 247.9 246.9 245.6 243.8 242.0 240.5 240.4 241.0 242.7 244.0 245.6 246.7 247.3 247.8 247.8 248.0 248.0 248.3 248.5 248.9 249.2 249.2 249.5 249.5 249.4 249.2 249.3 249.3 249.4 249.7 249.8 250.1 250.6 251.1 251.7 251.9 252.2 252.2 252.6 252.2 252.2 252.3 252.0 251.8 252.4 252.9 253.5 254.1 255.2 255.9 256.8 257.2 257.6 258.2 258.4 258.7 259.0 259.2 259.5 259.8 260.1 260.4 261.1 261.7 262.0 262.4 262.5 262.5 262.5 262.5 262.5 262.5 262.5 262.2 262.2 261.9 261.9 261.5 261.0 260.4 260.1 259.7 259.3 259.0 258.7 258.8 258.8 258.5 257.9 257.2 257.0 256.8 256.6 256.3 256.0 255.3 254.9 254.1 253.1 252.7 252.6 252.4 252.5 252.1 252.3 252.3 252.3 252.5 252.5 252.6 252.8 252.9 253.2 253.6 253.6 253.6 253.3 253.1 252.9 253.3 253.7 254.3 254.9 255.3 255.1 254.5 254.1 253.8 254.1 254.5 254.9 255.2 255.2 254.7 253.8 253.2 253.2 253.2 253.2
252.4 252.1 252.0 252.0 251.8 251.7 251.4 251.4 251.4 251.1 250.8 250.5 250.5 250.2 249.7 249.4 249.3 249.3 249.3 249.6 249.8 249.8 249.8 249.5 248.9 247.5 246.7 246.7 247.1 248.3 249.3 249.9 249.9 250.1 250.1 249.7 249.7 249.7 249.4 249.4 249.7 250.0 250.2 250.3 250.3 250.1 250.2 250.2 250.2 250.2 249.7 249.4 249.3 249.3 249.2 249.0 248.8 247.8 246.6 244.8 243.0 241.3 240.6 240.9 241.8 243.2 244.9 246.3 247.3 247.9 248.1 248.4 248.6 248.9 249.2 249.3 249.6 249.6 249.9 249.9 249.9 249.8 249.6 249.6 249.4 249.5 249.7 250.0 250.4 251.0 251.7 252.1 252.7 252.7 252.8 252.7 252.7 252.6 252.3 252.0 252.5 252.7 253.2 253.8 254.8 255.6 256.5 257.1 257.8 258.4 258.5 259.1 259.3 259.7 260.2 260.5 260.8 261.1 261.5 261.9 262.2 262.5 262.5 262.5 262.5 262.5 262.5 262.5 262.5 262.2 262.2 261.9 261.9 261.6 261.0 260.6 260.3 260.0 259.7 259.4 259.1 258.9 258.9 258.4 258.0 257.4 256.9 256.6 256.2 255.9 255.5 255.0 254.2 253.3 252.5 252.4 252.6 252.6 252.4 252.3 252.5 252.5 252.6 252.9 253.1 253.1 253.4 253.4 253.5 253.9 253.9 253.9 253.5 253.5 253.4 254.1 254.5 255.2 255.6 255.9 255.9 255.5 255.2 254.8 255.2 255.3 255.6 255.7 255.9 255.6 255.1 254.7 254.2 254.2 254.0
252.5 252.3 252.4 252.1 252.0 252.1 251.7 251.7 251.7 251.4 251.1 250.8 250.8 250.5 249.9 249.6 249.6 249.6 249.8 249.8 250.2 250.4 250.2 249.9 249.2 247.8 246.9 246.6 247.2 248.7 249.6 250.2 250.4 250.5 250.7 250.5 250.5 250.5 250.4 250.6 250.7 251.0 251.2 251.2 251.0 250.7 250.7 250.7 250.5 250.5 250.1 249.7 249.6 249.6 249.6 249.4 249.5 248.8 247.6 245.7 243.7 241.7 240.6 240.7 241.1 242.4 243.9 245.5 246.8 247.6 248.1 248.5 249.0 249.3 249.6 249.8 249.9 249.9 250.2 250.2 250.2 250.2 249.9 249.9 249.5 249.5 249.7 250.0 250.5 251.1 251.7 252.4 252.8 253.0 253.0 252.9 252.9 252.9 252.6 252.3 252.4 252.7 253.0 253.7 254.6 255.3 256.2 257.0 258.0 258.6 258.7 259.1 259.7 260.0 260.4 260.7 261.0 261.5 261.8 262.1 262.4 262.5 262.5 262.5 262.5 262.5 262.5 262.5 262.5 262.2 262.2 261.9 261.9 261.6 261.2 260.9 260.6 260.1 259.8 259.5 259.2 258.9 258.7 258.1 257.8 257.2 256.5 256.2 255.9 255.6 255.0 254.7 253.9 253.2 252.7 252.7 252.9 252.9 252.8 252.4 252.4 252.6 252.9 253.4 253.5 253.7 253.8 254.1 254.0 254.1 254.1 254.2 254.0 254.0 254.0 254.4 255.1 255.5 255.8 256.1 256.1 256.0 255.9 255.8 255.9 255.9 256.0 256.0 256.1 256.0 255.7 255.4 255.2 255.2 254.9
252.7 252.5 252.5 252.3 252.4 252.1 252.0 252.0 252.0 251.7 251.6 251.3 251.1 250.8 250.4 250.1 249.8 250.0 250.3 250.7 250.8 251.0 250.7 250.2 249.1 247.9 247.0 246.8 247.4 249.0 249.9 250.5 250.8 251.0 251.3 251.5 251.5 251.7 251.7 252.0 252.0 252.1 251.9 251.9 251.6 251.3 251.3 251.1 250.8 250.8 250.5 250.4 250.0 250.0 250.0 250.2 250.1 249.5 248.3 246.5 244.3 242.2 240.8 240.4 240.6 241.7 243.2 244.6 245.8 246.7 247.5 248.3 248.9 249.4 249.7 250.0 250.2 250.2 250.5 250.5 250.5 250.5 250.3 250.3 250.2 250.0 250.0 250.3 250.8 251.2 251.9 252.3 252.6 252.9 253.1 253.2 253.2 253.2 253.1 252.8 252.8 252.9 253.2 253.6 254.6 255.2 256.1 256.8 257.8 258.4 258.9 259.4 259.8 260.1 260.6 260.9 261.2 261.6 261.9 262.2 262.3 262.5 262.5 262.5 262.5 262.5 262.5 262.5 262.5 262.2 262.2 261.9 261.9 261.8 261.5 261.0 260.7 260.3 260.0 259.5 259.0 258.7 258.3 257.9 257.5 256.8 256.4 256.1 255.6 255.3 254.9 254.6 254.1 253.9 253.8 253.8 253.6 253.6 253.4 253.0 252.8 253.1 253.4 253.8 254.0 254.3 254.3 254.5 254.5 254.7 254.7 254.4 254.5 254.7 254.7 255.0 255.4 255.7 256.0 256.3 256.3 256.3 256.3 256.3 256.3 256.3 256.3 256.3 256.3 256.1 256.0 255.7 255.7 255.7 255.4
252.8 252.7 252.7 252.5 252.5 252.3 252.4 252.4 252.4 252.0 252.0 251.9 251.6 251.3 251.0 250.7 250.6 250.8 251.1 251.8 251.8 251.8 251.3 250.5 249.3 248.1 247.1 247.1 247.7 249.3 250.0 250.6 251.1 251.5 251.8 252.1 252.3 252.6 252.6 252.7 252.7 252.7 252.6 252.4 252.2 251.9 251.7 251.4 251.3 251.1 251.0 251.0 250.9 250.8 251.0 251.2 250.9 250.1 248.9 246.9 244.8 242.6 241.1 240.3 240.5 241.3 242.6 243.6 244.8 245.9 246.9 247.8 248.6 249.2 249.7 250.0 250.4 250.3 250.6 250.8 251.0 251.0 251.2 251.2 251.2 250.8 250.8 251.0 251.3 251.4 251.8 252.1 252.4 252.7 253.1 253.6 253.6 253.6 253.8 253.6 253.4 253.4 253.7 254.0 254.5 255.2 256.1 256.7 257.4 258.2 258.9 259.3 259.8 260.1 260.7 261.0 261.3 261.6 261.9 262.2 262.2 262.5 262.5 262.5 262.5 262.5 262.5 262.5 262.5 262.2 262.2 262.1 262.1 261.9 261.6 261.2 260.9 260.4 260.1 259.5 259.0 258.7 258.4 257.9 257.3 256.9 256.5 256.2 255.5 255.2 254.9 254.8 254.6 254.8 254.8 254.8 254.7 254.6 254.0 253.7 253.6 253.7 254.0 254.5 254.6 254.9 255.0 254.9 254.9 255.1 255.1 254.9 254.9 255.1 255.1 255.4 255.7 255.8 256.1 256.4 256.6 256.6 256.6 256.6 256.6 256.6 256.4 256.4 256.4 256.3 256.3 256.0 256.0 256.0 255.7
252.8 252.8 252.8 252.7 252.7 252.5 252.4 252.4 252.5 252.3 252.3 252.3 252.2 251.9 251.4 251.1 251.3 251.8 252.1 252.5 252.5 252.6 252.0 250.8 249.6 248.4 247.6 247.5 248.1 249.4 250.0 250.6 251.3 251.6 251.9 252.2 252.5 252.8 253.0 253.0 253.0 253.0 252.8 252.6 252.7 252.4 252.0 251.7 251.7 251.6 251.6 251.8 251.8 252.0 252.1 252.1 251.6 250.8 249.4 247.2 245.1 242.9 241.2 240.3 240.6 241.2 242.4 243.2 244.4 245.7 246.6 247.5 248.3 248.9 249.7 250.0 250.1 250.5 250.8 251.1 251.4 251.6 251.9 252.1 252.1 252.0 252.0 251.8 251.9 251.9 252.0 252.1 252.5 252.8 252.9 253.5 253.7 253.9 254.1 254.4 254.2 254.4 254.5 254.6 254.9 255.3 256.1 256.7 257.3 258.2 258.7 259.1 259.8 260.1 260.7 261.0 261.5 261.6 261.9 262.2 262.2 262.5 262.5 262.5 262.5 262.5 262.5 262.5 262.5 262.2 262.2 262.2 262.2 261.9 261.6 261.3 261.0 260.4 260.1 259.5 259.2 258.9 258.8 258.1 257.5 257.1 256.2 256.0 255.5 255.2 254.9 255.0 255.3 255.6 255.8 255.8 255.6 255.3 254.7 254.5 254.5 254.5 254.8 255.2 255.4 255.5 255.5 255.5 255.5 255.5 255.5 255.6 255.6 255.4 255.4 255.5 255.8 256.0 256.3 256.6 256.9 256.9 256.9 256.9 256.9 256.9 256.6 256.6 256.6 256.4 256.4 256.3 256.3 256.1 255.8
252.6 252.6 252.6 252.6 252.6 252.7 252.7 252.6 252.6 252.7 252.7 252.7 252.7 252.4 251.7 251.4 251.7 252.4 252.7 253.0 253.0 252.8 252.2 251.3 250.1 248.8 248.3 247.7 248.2 249.2 249.8 250.5 251.1 251.6 251.8 252.1 252.7 252.8 253.1 253.1 253.1 253.1 253.0 253.0 252.8 252.7 252.3 252.2 252.0 252.3 252.3 252.4 252.6 252.9 252.9 252.7 252.1 251.0 249.5 247.3 245.2 243.1 241.4 240.5 240.6 241.1 242.4 243.6 244.9 245.9 246.6 247.6 248.2 248.8 249.5 249.8 250.0 250.6 250.9 251.2 251.7 252.0 252.3 252.6 253.0 253.0 252.8 252.7 252.5 252.5 252.5 252.3 252.4 252.5 252.7 253.1 253.6 254.2 254.6 254.9 255.1 255.5 255.5 255.4 255.7 255.8 256.2 256.9 257.3 258.2 258.5 259.2 259.8 260.1 260.7 261.0 261.4 261.6 261.9 262.2 262.2 262.3 262.5 262.5 262.5 262.5 262.5 262.5 262.3 262.2 262.2 262.2 262.2 261.9 261.6 261.3 261.0 260.4 260.1 259.7 259.4 259.1 258.9 258.5 257.7 256.9 256.1 255.6 255.5 255.2 255.3 255.5 255.9 256.2 256.3 256.3 256.0 255.7 255.3 255.3 255.2 255.4 255.7 256.0 256.3 256.3 256.3 256.4 256.4 256.4 256.4 256.1 256.2 255.9 255.6 255.6 255.9 256.3 256.5 256.9 257.2 257.2 257.2 257.2 257.2 257.0 256.9 256.9 256.9 256.6 256.6 256.6 256.4 256.1 255.8
252.3 252.3 252.5 252.5 252.4 252.6 252.6 252.8 252.8 252.8 252.8 252.8 252.8 252.7 252.1 251.7 252.0 252.5 252.8 253.1 253.1 253.0 252.4 251.8 250.7 249.7 248.9 248.2 248.4 248.9 249.7 250.1 250.7 251.3 251.8 252.1 252.6 252.8 253.1 253.1 253.1 253.1 253.1 253.1 253.0 252.8 252.7 252.5 252.4 252.5 252.5 252.5 252.8 253.1 253.1 252.8 252.2 251.0 249.5 247.3 245.2 243.0 241.5 240.6 240.6 241.4 242.5 244.1 245.3 246.2 246.8 247.6 248.2 248.8 249.2 249.7 250.0 250.6 250.9 251.4 252.0 252.3 252.6 253.1 253.5 253.7 253.6 253.6 253.3 253.1 253.1 252.8 252.6 252.6 252.7 253.2 253.8 254.5 255.1 255.6 255.9 256.2 256.2 256.3 256.6 256.9 257.0 257.4 257.7 258.2 258.5 259.2 259.8 260.0 260.7 261.0 261.3 261.6 261.9 262.2 262.2 262.2 262.3 262.5 262.5 262.5 262.5 262.5 262.2 262.2 262.2 262.2 262.2 261.9 261.6 261.3 261.0 260.6 260.3 259.8 259.5 259.2 258.9 258.4 257.5 256.6 256.0 255.5 255.3 255.2 255.7 256.2 256.5 256.8 256.7 256.8 256.3 256.0 255.7 255.8 256.0 256.3 256.6 257.2 257.5 257.3 257.3 257.1 257.1 257.1 257.1 256.9 256.8 256.5 256.3 256.3 256.4 256.7 257.3 257.3 257.7 257.7 257.7 257.5 257.5 257.2 257.2 257.2 257.0 256.9 256.7 256.7 256.6 256.3 255.7
252.0 252.0 252.3 252.3 252.5 252.4 252.4 252.8 252.8 252.8 252.8 252.8 252.8 252.8 252.2 252.0 252.4 252.4 252.8 253.1 253.1 253.1 252.5 251.9 251.1 250.4 249.5 248.9 248.7 248.8 249.5 249.8 250.4 251.2 251.9 252.3 252.6 252.8 253.1 253.1 253.1 253.1 253.3 253.0 253.1 253.0 252.8 252.6 252.5 252.5 252.5 252.5 252.6 252.9 252.9 252.6 252.0 250.8 249.3 247.2 245.0 243.1 241.6 240.8 240.6 241.5 242.9 244.4 245.6 246.6 247.0 247.6 248.4 248.8 249.2 249.8 250.2 250.8 251.3 251.7 252.3 252.8 253.1 253.7 254.2 254.5 254.5 254.3 254.2 254.1 253.9 253.6 253.3 253.3 253.3 253.7 254.3 254.7 255.3 256.0 256.5 256.8 257.0 257.3 257.6 257.7 257.7 258.0 258.3 258.4 258.7 259.1 259.8 260.3 260.9 261.2 261.3 261.6 261.9 262.2 262.2 262.2 262.2 262.5 262.5 262.5 262.5 262.5 262.2 262.2 262.2 262.2 262.2 261.9 261.6 261.3 260.8 260.5 260.2 259.8 259.3 259.0 258.7 257.9 257.2 256.3 255.6 255.5 255.4 255.5 256.1 256.8 257.1 257.6 257.6 257.4 256.9 256.4 256.3 256.7 257.0 257.3 257.6 258.0 258.3 258.2 258.0 257.9 257.9 257.9 257.9 257.9 257.6 257.3 257.3 257.3 257.5 257.8 258.0 258.2 258.3 258.3 258.1 258.0 257.8 257.5 257.5 257.3 257.2 257.0 256.9 256.9 256.6 256.3 255.4
251.5 251.7 251.8 252.0 252.3 252.5 252.5 252.8 252.8 252.8 252.8 252.8 252.8 252.8 252.3 252.4 252.4 252.6 252.8 253.1 253.1 252.9 252.4 252.1 251.4 250.8 250.1 249.5 249.2 249.0 249.2 249.7 250.1 251.1 251.6 252.5 252.8 252.7 253.1 253.1 253.0 253.3 253.4 253.3 253.0 253.1 253.0 253.0 252.7 252.7 252.4 252.5 252.3 252.4 252.4 252.1 251.5 250.3 248.8 246.7 244.5 242.7 241.2 240.7 240.5 241.6 242.9 244.5 245.7 246.7 247.0 247.6 248.5 249.0 249.8 250.4 250.7 251.3 251.9 252.2 252.8 253.4 253.7 254.5 255.0 255.3 255.2 255.1 255.1 255.1 255.0 254.7 254.4 254.2 254.2 254.5 254.9 255.2 255.8 256.5 257.1 257.4 257.7 258.0 258.3 258.3 258.5 258.6 258.7 258.9 259.0 259.3 259.7 260.4 261.0 261.3 261.5 261.8 261.9 262.2 262.2 262.2 262.2 262.5 262.5 262.5 262.5 262.3 262.2 262.2 262.2 262.2 262.2 261.9 261.6 261.1 260.7 260.2 259.9 259.4 259.0 258.5 258.2 257.3 256.7 256.0 255.5 255.5 255.7 256.1 256.7 257.4 257.7 258.3 258.3 258.2 257.9 257.5 257.3 257.4 257.7 258.0 258.5 258.6 258.9 258.8 258.4 258.4 258.6 258.6 258.6 258.6 258.3 258.2 258.2 258.2 258.3 258.7 258.6 258.8 258.7 258.8 258.4 258.3 257.9 257.6 257.6 257.5 257.4 257.0 257.0 257.0 256.4 256.0 254.9
251.1 251.2 251.3 251.7 252.2 252.3 252.5 252.6 252.8 252.8 252.8 252.8 252.8 252.8 252.5 252.4 252.6 252.8 252.8 252.9 252.9 252.7 252.7 252.2 251.7 251.1 250.7 250.1 249.6 249.3 249.3 249.5 250.0 250.7 251.5 252.5 252.8 253.0 253.1 253.0 253.3 253.4 253.4 253.4 253.3 253.3 253.1 253.1 252.8 252.8 252.7 252.5 252.1 252.2 252.0 251.7 250.9 249.7 248.2 246.0 243.9 242.0 240.7 240.4 240.7 241.9 243.3 244.7 245.9 246.7 247.0 247.5 248.5 249.3 250.2 250.6 251.3 251.9 252.3 252.8 253.4 254.1 254.3 255.1 255.6 255.9 256.1 256.1 256.3 256.3 256.1 255.9 255.6 255.3 255.3 255.4 255.7 256.0 256.4 257.0 257.7 258.0 258.3 258.6 258.7 259.0 259.1 259.1 259.2 259.4 259.3 259.6 259.9 260.6 261.0 261.3 261.6 261.9 262.1 262.2 262.2 262.2 262.2 262.5 262.5 262.3 262.3 262.2 262.2 262.2 262.2 262.2 262.0 261.7 261.4 261.0 260.5 260.1 259.6 259.0 258.7 258.0 257.6 256.9 256.2 255.6 255.5 255.6 256.1 257.0 257.6 258.0 258.3 258.7 258.9 258.8 258.5 258.4 258.0 258.0 258.3 258.4 258.9 259.3 259.4 259.0 258.9 258.9 259.0 259.0 259.0 259.2 259.1 259.0 259.0 259.0 258.9 259.1 259.1 259.0 259.1 259.1 258.7 258.4 258.1 257.8 257.8 257.7 257.3 257.0 257.1 256.9 256.3 255.7 254.5
250.6 250.8 251.1 251.4 251.8 252.2 252.3 252.4 252.8 252.8 252.8 252.8 252.8 252.8 252.6 252.6 252.8 252.7 252.7 252.7 252.9 253.0 252.8 252.3 252.0 251.4 251.1 250.5 250.1 249.8 249.6 249.6 250.0 250.6 251.5 252.3 252.8 252.9 253.1 253.3 253.4 253.4 253.4 253.4 253.4 253.4 253.3 253.3 253.0 252.7 252.8 252.4 252.1 252.0 251.7 251.2 250.3 249.3 247.6 245.4 243.5 241.8 240.5 240.2 241.0 242.4 244.0 245.2 246.2 246.6 246.9 247.7 248.7 249.6 250.2 250.6 251.6 252.2 252.7 253.3 253.9 254.5 255.0 255.6 256.0 256.5 256.8 256.8 257.1 257.1 257.0 257.2 256.9 256.7 256.7 256.7 256.8 257.1 257.5 257.9 258.3 258.4 258.7 259.1 259.0 259.2 259.4 259.3 259.7 259.7 259.6 259.9 260.3 260.7 261.2 261.5 261.6 261.9 262.2 262.2 262.2 262.2 262.2 262.5 262.3 262.2 262.2 262.2 262.2 262.2 262.2 262.2 261.9 261.6 261.1 260.8 260.4 260.1 259.5 258.8 258.6 257.9 257.1 256.5 255.9 255.5 255.7 256.1 256.7 257.7 258.3 258.6 258.9 259.2 259.4 259.1 258.8 258.8 258.7 258.7 258.6 258.8 259.0 259.5 259.6 259.5 259.3 259.3 259.5 259.5 259.5 259.7 259.7 259.3 259.4 259.4 259.4 259.3 259.4 259.4 259.2 259.2 259.1 258.8 258.3 258.0 257.9 257.6 257.4 257.1 256.9 256.4 255.8 255.0 254.0
249.9 250.3 250.6 251.1 251.5 252.0 252.1 252.5 252.8 252.7 252.7 252.7 252.7 252.7 252.9 252.9 252.9 252.9 253.1 253.1 253.2 253.0 252.9 252.6 252.3 251.7 251.4 250.8 250.5 250.2 249.9 249.8 250.2 250.8 251.5 251.9 252.6 252.7 253.1 253.4 253.4 253.4 253.6 253.6 253.6 253.4 253.4 253.4 253.1 253.0 252.8 252.7 252.4 251.8 251.4 250.8 249.7 248.6 246.8 244.8 243.1 241.7 240.9 240.7 241.7 243.1 244.4 245.7 246.6 246.8 247.3 248.1 248.8 249.5 249.8 250.4 251.3 252.2 252.8 253.4 254.0 254.8 255.4 256.0 256.3 256.9 257.2 257.4 257.7 257.7 257.9 258.0 257.9 258.1 258.1 258.1 258.1 258.2 258.3 258.6 258.7 258.9 259.0 259.2 259.3 259.3 259.5 259.6 259.8 260.0 260.0 260.3 260.6 260.9 261.3 261.6 261.6 261.9 262.0 262.2 262.2 262.2 262.2 262.3 262.2 262.2 262.2 262.2 262.2 262.2 262.2 262.2 261.9 261.6 261.2 260.9 260.4 260.1 259.5 259.0 258.5 257.9 257.2 256.6 256.0 255.6 255.9 256.8 257.6 258.3 258.9 259.2 259.5 259.7 259.5 259.2 258.9 258.9 258.9 258.9 258.7 258.8 259.3 259.6 259.9 260.2 259.8 259.8 259.9 260.0 260.0 260.0 260.0 259.9 259.7 259.6 259.6 259.7 259.5 259.5 259.2 259.2 259.2 258.9 258.3 258 258.0 257.7 257.2 256.9 256.6 255.8 255.2 254.1 253.3
249.5 249.8 250.1 250.7 251.4 251.6 252.1 252.5 252.8 253.0 252.9 252.9 252.9 253.1 253.2 253.4 253.4 253.4 253.7 253.7 253.7 253.4 253.4 253.1 252.6 252.2 251.7 251.3 250.8 250.5 250.3 250.6 250.6 251.1 251.5 251.8 252.5 252.8 253.1 253.2 253.4 253.4 253.7 253.7 253.7 253.6 253.6 253.4 253.3 253.1 252.7 252.8 252.5 251.9 251.2 250.4 249.2 247.8 246.0 244.5 243.1 242.3 241.9 241.9 242.5 243.5 244.6 245.6 246.7 247.2 247.8 248.4 249.0 249.3 249.6 250.2 251.2 251.9 252.8 253.3 253.9 254.9 255.7 256.1 256.6 257.0 257.5 257.9 258.1 258.1 258.5 258.7 258.7 259.0 259.0 259.0 259.0 259.0 258.9 259.1 259.0 259.4 259.3 259.3 259.7 259.7 259.6 260.0 260.0 260.1 260.3 260.4 260.7 261.0 261.3 261.6 261.6 261.9 261.9 262.0 262.2 262.2 262.2 262.2 262.2 262.2 262.2 262.2 262.2 262.2 262.2 262.2 261.9 261.6 261.3 261.0 260.6 260.3 259.6 259.4 258.7 258.1 257.5 256.9 256.5 256.3 256.6 257.3 258.3 258.9 259.3 259.6 260.0 259.9 259.6 259.3 259.0 259.0 259.0 259.0 259.2 259.4 259.8 260.1 260.4 260.6 260.4 260.4 260.5 260.2 260.3 260.3 260.3 260.1 260.0 260.0 260.0 259.8 259.7 259.5 259.1 259.2 259.2 258.9 258.3 258.0 257.8 257.5 257.1 256.6 256.1 255.1 254.3 253.3 253.0
249.4 249.5 249.8 250.6 251.0 251.5 252.1 252.5 252.8 253.1 253.2 253.2 253.4 253.6 253.7 253.8 254.0 254.0 254.3 254.3 254.3 254.2 254.0 253.7 253.3 252.8 252.4 251.9 251.3 251.1 251.2 251.3 251.5 251.6 251.9 252.0 252.2 252.5 252.9 253.0 253.4 253.4 253.7 253.9 253.7 253.7 253.7 253.6 253.4 253.3 252.9 253.0 252.7 251.9 251.3 250.4 249.0 247.4 245.7 244.7 243.9 243.2 243.1 243.0 243.1 243.6 244.2 245.1 246.3 247.3 248.1 248.7 249.3 249.7 250.2 250.8 251.6 252.0 252.7 253.5 254.1 255.0 255.8 256.3 256.7 257.2 257.6 257.9 258.4 258.4 258.8 258.9 258.9 259.2 259.2 259.2 259.4 259.4 259.4 259.4 259.4 259.5 259.7 259.7 259.8 259.8 260.0 260.1 260.1 260.3 260.4 260.4 260.7 261.0 261.3 261.4 261.6 261.7 261.9 261.9 262.0 262.2 262.2 262.2 262.2 262.2 262.2 262.2 262.2 262.2 262.2 262.2 261.9 261.8 261.5 261.2 260.7 260.4 260.0 259.5 259.1 258.4 257.8 257.4 257.1 257.3 257.6 258.2 258.9 259.5 259.8 260.1 260.2 260.5 260.1 259.8 259.5 259.3 259.5 259.5 260.0 260.3 260.6 260.7 261.0 261.1 261.1 261.1 260.9 260.8 260.6 260.6 260.6 260.2 260.3 260.3 260.1 260.0 259.8 259.5 259.4 259.2 259.0 258.7 258.3 258.0 257.5 257.2 256.9 256.2 255.6 254.7 253.7 253.0 253.2
249.3 249.5 249.8 250.4 251.1 251.5 252.1 252.4 252.7 253.3 253.6 253.6 253.9 253.8 254.2 254.3 254.7 254.6 255.0 255.0 255.0 255.0 254.8 254.5 254.0 253.6 253.1 252.5 252.1 252.1 251.9 252.1 252.2 252.2 252.5 252.5 252.5 252.6 252.9 253.2 253.3 253.6 253.9 254.0 253.9 253.7 253.7 253.7 253.5 253.4 253.3 253.1 252.8 251.9 251.1 250.0 248.6 247.1 245.9 245.2 244.6 244.4 244.2 243.8 243.5 243.6 243.7 244.5 245.9 246.9 248.0 249.0 249.6 250.4 251.0 251.6 252.2 252.5 253.1 253.8 254.6 255.4 256.0 256.4 256.9 257.3 257.8 258.1 258.6 258.8 258.9 258.9 259.1 259.2 259.2 259.4 259.5 259.5 259.5 259.5 259.5 259.5 259.6 259.8 259.8 259.8 259.9 260.1 260.1 260.4 260.4 260.4 260.7 261.0 261.3 261.3 261.4 261.6 261.9 261.9 261.9 262.0 262.0 262.2 262.2 262.2 262.2 262.2 262.2 262.2 262.2 262.2 262.1 261.9 261.6 261.3 260.9 260.6 260.3 259.6 259.2 258.7 258.3 258.1 257.7 258.1 258.3 258.8 259.3 260.0 260.2 260.5 260.8 260.9 260.7 260.4 260.1 260.0 260.1 260.3 260.8 261.1 261.4 261.6 261.7 261.5 261.5 261.5 261.2 261.0 260.9 260.9 260.7 260.6 260.4 260.4 260.3 260.1 259.8 259.7 259.5 259.1 258.9 258.5 258.3 257.8 257.1 256.8 256.6 256.1 255.5 254.6 253.8 253.5 253.7
249.9 250.0 250.4 250.6 251.4 251.7 252.3 252.6 252.9 253.4 253.7 253.9 254.1 254.4 254.4 254.8 255.1 255.3 255.4 255.6 255.6 255.6 255.6 255.3 254.8 254.6 253.9 253.5 253.0 252.8 252.5 252.8 253.0 253.0 253.1 253.1 253.1 253.1 253.2 253.6 253.5 253.7 254.0 254.0 254.0 253.8 253.9 253.9 253.9 253.6 253.6 253.1 252.8 251.9 251.0 249.7 248.5 247.1 246.2 245.8 245.4 245.4 245.3 245.0 244.1 243.8 243.6 243.8 245.2 246.3 247.5 249.0 249.7 250.9 251.7 252.2 252.8 253.1 253.9 254.3 255.1 255.7 256.3 256.6 257.2 257.3 258.0 258.3 258.6 258.9 258.9 258.9 259.0 259.2 259.2 259.3 259.3 259.3 259.5 259.5 259.5 259.5 259.5 259.6 259.6 259.6 259.6 259.9 259.9 260.2 260.2 260.4 260.5 260.8 261.1 261.1 261.3 261.6 261.7 262.0 261.9 261.9 261.9 262.0 262.2 262.2 262.2 262.2 262.2 262.2 262.2 262.0 262.0 261.9 261.6 261.5 261.2 260.7 260.4 260.0 259.3 259.1 258.8 258.3 258.2 258.3 258.8 259.1 259.6 260.2 260.7 261.1 261.2 261.4 261.4 261.1 260.7 260.8 260.8 260.9 261.2 261.5 261.8 262.1 261.9 261.8 261.8 261.6 261.5 261.2 261.2 261.0 260.9 260.7 260.6 260.6 260.4 260.1 260.0 259.8 259.7 259.4 258.8 258.5 258.2 257.6 257.0 256.7 256.3 255.9 255.5 255.0 254.7 254.7 254.7
250.9 250.8 251.0 251.3 251.7 252.0 252.4 253.0 253.3 253.6 253.8 254.2 254.7 254.8 255.0 255.1 255.4 255.7 255.7 256.0 256.0 256.0 256.0 255.9 255.6 255.3 254.9 254.6 253.9 253.6 253.3 253.4 253.7 253.8 253.5 253.5 253.5 253.5 253.5 253.9 253.9 253.8 254.1 254.2 254.2 254.2 254.0 254.0 254.0 253.7 253.7 253.1 252.8 251.7 250.6 249.6 248.5 247.5 246.7 246.2 245.9 246.1 246.3 246.0 245.1 244.3 243.6 243.6 244.4 245.7 246.9 248.5 249.6 250.8 251.7 252.5 253.3 253.8 254.5 255.0 255.6 256.0 256.6 256.9 257.3 257.5 258.0 258.1 258.6 258.7 258.9 258.9 258.8 259.0 259.2 259.2 259.2 259.2 259.3 259.3 259.3 259.3 259.3 259.3 259.3 259.3 259.3 259.6 259.6 259.9 259.9 260.2 260.4 260.5 260.8 260.8 261.1 261.4 261.4 261.6 261.7 261.7 262.0 261.9 262.0 262.0 262.2 262.2 262.2 262.2 262.0 261.9 261.9 261.9 261.6 261.6 261.3 260.9 260.4 260.1 259.7 259.2 258.9 258.4 258.3 258.2 258.9 259.1 259.9 260.6 261.2 261.5 261.7 261.8 261.8 261.7 261.4 261.4 261.2 261.4 261.5 261.6 261.9 262.2 262.1 262.1 261.9 261.8 261.6 261.3 261.3 261.2 261.0 260.9 260.7 260.7 260.4 260.3 260.1 259.8 259.8 259.5 259.0 258.7 258.4 257.8 257.2 256.7 255.9 255.8 255.5 255.3 255.6 255.8 255.8
251.8 251.8 251.8 251.9 252.0 252.3 252.6 253.1 253.4 253.7 254.2 254.5 254.9 255.1 255.4 255.4 255.7 256.0 256.0 256.1 256.3 256.3 256.3 256.3 256.0 255.9 255.6 255.3 254.9 254.6 254.2 254.2 254.3 254.2 254.0 254.0 254.0 254.0 254.0 254.2 254.2 254.2 254.5 254.5 254.3 254.3 254.2 254.2 254.2 253.9 253.7 253.1 252.8 251.6 250.3 249.3 248.3 248.0 247.3 246.7 246.4 246.5 247.2 246.9 246.2 245.0 244.1 243.6 244.0 244.9 246.1 247.7 248.9 250.1 251.2 252.1 253.3 254.1 254.6 255.4 255.8 256.1 256.8 257.0 257.3 257.7 257.8 258.0 258.4 258.6 258.7 258.7 258.9 258.9 259.0 259.0 259.0 259.0 259.0 259.0 259.0 259.0 259.2 259.0 259.0 259.0 259.0 259.3 259.5 259.6 259.6 259.9 260.2 260.4 260.5 260.5 260.8 261.1 261.1 261.1 261.4 261.4 261.6 261.8 261.7 261.9 262.0 262.0 262.0 262.0 261.9 261.9 261.9 261.9 261.6 261.6 261.3 261.0 260.6 260.3 259.8 259.4 258.9 258.6 258.2 258.4 258.8 259.3 260.2 260.8 261.5 261.8 262.1 262.1 262.1 262.1 262.0 261.8 261.5 261.8 261.8 261.8 262.1 262.2 262.2 262.2 262.1 261.9 261.6 261.5 261.5 261.3 261.2 261.0 260.9 260.9 260.6 260.4 260.1 260.0 259.8 259.7 259.4 259.1 258.7 258.1 257.5 256.9 256.1 255.9 255.8 256.0 256.3 256.5 256.7
252.4 252.4 252.4 252.3 252.3 252.6 252.9 253.2 253.5 253.8 254.3 254.8 255.1 255.4 255.5 255.7 255.8 256.1 256.1 256.3 256.4 256.4 256.4 256.4 256.3 256.3 256.2 255.9 255.6 255.3 255.0 255.0 255.0 254.7 254.5 254.5 254.5 254.5 254.5 254.5 254.5 254.5 254.8 254.6 254.5 254.5 254.5 254.5 254.3 254.0 253.7 253.1 252.6 251.4 250.2 248.9 248.2 248.5 248.2 247.6 247.2 247.1 247.9 248.0 247.4 246.4 245.1 243.9 243.7 244.1 245.0 246.4 247.8 249.0 250.3 251.4 252.6 253.5 254.4 255.4 255.8 256.1 256.5 257.0 257.4 257.5 257.7 257.8 258.1 258.4 258.6 258.6 258.7 258.7 258.7 258.7 258.7 258.7 258.7 258.7 258.7 258.9 259.0 258.9 258.9 258.9 258.9 259.0 259.3 259.5 259.5 259.6 259.9 260.2 260.2 260.2 260.5 260.8 260.8 260.8 261.0 260.9 261.1 261.2 261.4 261.8 261.7 261.9 261.9 261.9 261.9 261.9 261.9 261.9 261.8 261.6 261.5 261.2 260.9 260.4 260.0 259.5 258.9 258.5 258.4 258.7 259.2 259.8 260.7 261.4 261.8 262.1 262.4 262.4 262.4 262.2 262.2 262.1 261.8 261.9 261.9 262.1 262.2 262.4 262.4 262.4 262.2 261.9 261.8 261.6 261.6 261.5 261.3 261.2 261.2 261.0 260.9 260.6 260.3 260.1 260.0 259.8 259.5 259.2 259.1 258.5 257.8 257.2 256.8 256.6 256.6 256.9 257.3 257.3 257.4
252.6 252.6 252.6 252.6 252.6 252.9 253.2 253.6 253.9 254.2 254.4 254.9 255.4 255.5 255.7 255.8 256.0 256.1 256.1 256.4 256.4 256.4 256.4 256.4 256.4 256.4 256.5 256.3 256.0 255.7 255.4 255.4 255.4 255.1 255.0 254.8 254.8 254.7 254.8 254.8 254.8 254.8 254.9 254.8 254.8 254.8 254.8 254.8 254.5 254.3 253.9 253.3 252.4 251.2 250.0 248.6 247.8 248.0 248.4 248.1 248.1 248.3 248.9 249.2 248.6 247.5 246.0 244.8 243.7 243.7 244.1 245.0 246.4 247.6 248.8 250.0 251.5 252.5 253.9 254.8 255.7 256.2 256.4 256.9 257.2 257.2 257.3 257.3 257.6 257.9 258.2 258.4 258.4 258.4 258.4 258.4 258.2 258.2 258.4 258.4 258.4 258.7 258.7 258.7 258.7 258.7 258.7 258.9 259.0 259.3 259.3 259.5 259.8 259.9 259.9 260.1 260.2 260.3 260.3 260.3 260.3 260.5 260.6 260.8 261.1 261.2 261.4 261.7 261.7 261.9 261.9 261.9 261.9 261.9 261.9 261.8 261.6 261.5 261.2 260.7 260.2 259.4 258.8 258.7 258.7 259.2 259.8 260.4 261.4 261.8 262.1 262.4 262.7 262.7 262.5 262.4 262.4 262.2 262.1 262.1 262.1 262.2 262.4 262.5 262.5 262.5 262.4 262.1 261.9 261.8 261.8 261.8 261.5 261.5 261.5 261.2 261.0 260.7 260.4 260.3 260.1 259.8 259.7 259.4 259.2 258.6 258.2 257.7 257.4 257.6 257.8 258.1 258.2 258.2 258.0
252.9 252.9 252.9 252.9 252.9 253.3 253.6 253.7 254.2 254.5 254.8 255.1 255.5 255.7 255.8 255.8 256.2 256.1 256.1 256.4 256.4 256.4 256.4 256.4 256.4 256.4 256.4 256.4 256.1 256.0 255.7 255.7 255.7 255.6 255.4 255.3 255.3 255.3 255.1 255.1 255.1 255.1 255.1 255.1 255.1 255.1 255.1 254.9 254.8 254.8 254.2 253.5 252.6 251.6 250.2 248.7 247.3 247.2 247.6 248.2 248.9 249.4 250.0 250.3 249.7 248.6 247.3 245.8 244.4 243.7 243.7 244.1 245.0 246.2 247.2 248.4 250.0 251.4 253.2 254.2 255.2 255.8 256.3 256.6 256.9 256.9 256.9 256.9 257.2 257.5 257.6 257.7 257.9 257.9 257.9 257.9 257.6 257.6 257.7 257.9 257.9 258.2 258.2 258.4 258.4 258.4 258.6 258.7 258.8 259.2 259.2 259.5 259.6 259.6 259.6 259.7 259.7 259.7 259.7 259.7 259.7 259.8 260.0 260.3 260.6 260.8 261.1 261.4 261.6 261.7 261.7 261.9 261.9 261.9 261.9 261.9 261.8 261.8 261.7 261.4 260.7 259.8 259.2 259.2 259.4 260.0 260.6 261.0 261.8 262.1 262.4 262.7 262.8 262.8 262.7 262.7 262.7 262.4 262.4 262.4 262.4 262.4 262.7 262.7 262.7 262.7 262.5 262.2 262.1 262.1 261.9 261.9 261.8 261.6 261.6 261.5 261.2 260.9 260.6 260.4 260.3 260.0 259.8 259.5 259.2 258.5 258.2 258.1 258.0 258.3 258.7 258.8 258.8 258.8 258.6
253.3 253.3 253.3 253.3 253.3 253.4 253.7 253.9 254.3 254.6 254.9 255.2 255.5 255.8 255.8 255.8 255.9 256.1 256.1 256.2 256.4 256.4 256.4 256.4 256.4 256.4 256.4 256.4 256.1 256.1 256.0 256.0 255.8 255.8 255.7 255.7 255.7 255.7 255.4 255.4 255.4 255.4 255.4 255.4 255.4 255.4 255.2 255.1 255.1 255.1 254.5 254.1 253.1 252.0 250.5 249.0 247.6 246.9 247.2 248.3 249.3 250.1 250.7 251.0 250.5 250.0 248.8 247.4 245.9 244.6 243.9 243.8 244.0 245.1 246.0 247.3 248.6 250.4 252.0 253.4 254.4 255.2 255.6 255.9 256.2 256.2 256.2 256.2 256.5 256.8 257.0 257.0 257.1 257.1 257.1 257.1 257.0 257.0 257.0 257.3 257.3 257.6 257.8 258.1 258.1 258.1 258.4 258.6 258.9 259.0 259.2 259.3 259.3 259.3 259.3 259.3 259.3 259.3 259.3 259.3 259.3 259.3 259.6 259.7 260.2 260.5 260.8 261.1 261.4 261.6 261.6 261.9 261.9 261.9 261.9 261.9 262.1 262.1 262.1 261.8 261.4 260.5 260.0 259.8 260.3 261.0 261.6 261.9 262.3 262.4 262.7 262.8 263.0 263.0 263.0 263.0 263.0 262.7 262.7 262.7 262.7 262.7 263.0 263.0 262.8 262.8 262.7 262.4 262.4 262.4 262.1 262.1 261.9 261.8 261.8 261.6 261.3 261.0 260.9 260.6 260.4 260.1 259.8 259.5 259.2 258.7 258.4 258.4 258.4 258.7 259.1 259.1 259.0 259.0 259.1
253.2 253.2 253.4 253.4 253.4 253.4 253.7 254.0 254.5 254.8 254.9 255.2 255.5 255.8 255.8 255.8 255.8 256.1 256.1 256.1 256.2 256.2 256.2 256.4 256.4 256.4 256.4 256.4 256.1 256.1 256.1 256.1 256.0 255.8 255.8 255.8 255.8 255.8 255.7 255.7 255.7 255.7 255.5 255.5 255.5 255.5 255.4 255.4 255.4 255.4 255.0 254.5 253.8 252.5 251.0 249.5 248.3 247.5 247.8 248.8 249.7 250.7 251.3 251.6 251.7 251.3 250.5 249.3 247.7 246.2 245.1 244.4 244.2 244.7 245.5 246.5 247.8 249.4 250.9 252.5 253.4 254.4 254.9 255.0 255.3 255.1 255.1 255.3 255.6 255.9 256.2 256.4 256.4 256.4 256.4 256.4 256.4 256.4 256.4 256.5 256.6 257.0 257.3 257.6 257.6 257.8 257.9 258.2 258.5 258.7 259.0 259.0 259.0 259.0 259.0 259.0 259.0 259.0 259.0 259.0 259.0 259.0 259.3 259.5 259.9 260.4 260.7 261.0 261.3 261.6 261.6 261.9 261.9 261.9 261.9 261.9 262.2 262.2 262.2 262.1 261.8 261.1 260.6 260.4 261.1 261.5 261.9 262.4 262.7 262.7 262.8 263.0 263.3 263.3 263.3 263.3 263.3 263.2 263.0 263.0 263.0 263.0 263.1 263.1 263.0 263.0 263.0 262.7 262.5 262.5 262.4 262.2 262.1 261.9 261.9 261.8 261.5 261.2 261.2 260.9 260.6 260.3 259.9 259.6 259.3 259.0 258.7 258.7 258.9 259.0 259.2 259.2 259.4 259.4 259.4
252.9 253.1 253.2 253.2 253.4 253.4 253.7 254.0 254.4 254.9 254.9 255.2 255.5 255.6 255.8 255.8 255.8 256.1 256.1 256.1 256.1 256.1 256.1 256.2 256.2 256.2 256.2 256.2 256.1 256.1 256.1 256.1 256.1 256.0 256.0 256.0 256.0 256.0 256.0 256.0 255.8 255.8 255.7 255.7 255.7 255.7 255.7 255.7 255.7 255.7 255.4 255.0 254.4 253.2 251.6 250.1 248.9 248.5 248.8 249.5 250.4 251.1 251.9 252.4 252.7 252.8 252.2 251.3 249.8 248.2 246.8 245.7 245.2 245.1 245.6 246.3 247.4 248.9 250.3 251.4 252.6 253.3 253.9 253.9 254.2 254.1 253.9 254.0 254.7 255.0 255.3 255.5 255.4 255.4 255.5 255.5 255.5 255.4 255.6 255.7 256.2 256.5 256.8 257.0 257.2 257.3 257.3 257.6 257.9 258.2 258.3 258.5 258.5 258.7 258.7 258.7 258.7 258.7 258.7 258.7 258.7 258.6 259.0 259.3 259.7 260.2 260.7 261.0 261.3 261.6 261.6 261.9 261.9 261.9 261.9 262.1 262.2 262.2 262.2 262.2 262.1 261.7 261.1 261.1 261.5 261.8 262.1 262.5 262.8 262.8 263.0 263.3 263.4 263.6 263.6 263.6 263.6 263.6 263.5 263.5 263.5 263.3 263.3 263.3 263.3 263.3 263.1 263.0 262.7 262.7 262.5 262.4 262.2 262.1 262.1 261.9 261.6 261.5 261.3 261.2 260.9 260.6 260.3 260.0 259.7 259.3 259.2 259.2 259.4 259.3 259.3 259.3 259.5 259.5 259.5
252.4 252.7 252.7 252.9 253.2 253.4 253.7 254.0 254.3 254.9 254.9 255.2 255.5 255.5 255.8 255.8 255.8 256.1 256.1 256.1 256.1 256.1 256.1 256.1 256.1 256.1 256.1 256.1 256.1 256.1 256.1 256.1 256.1 256.1 256.1 256.1 256.1 256.1 256.1 256.1 256.0 256.0 256.0 256.0 256.0 256.0 256.0 256.0 256.0 256.0 255.7 255.4 255.0 253.8 252.3 250.7 249.5 249.2 249.3 249.9 251.0 251.6 252.5 253.3 253.8 254.1 253.7 253.1 252.0 250.4 249.1 247.6 246.6 246.1 246.1 246.3 247.1 248.3 249.3 250.2 251.3 251.9 252.5 252.5 252.8 252.8 252.9 252.8 253.6 253.7 254.0 254.0 254.2 254.2 254.0 254.0 254.0 254.3 254.6 255.3 255.9 256.4 256.5 256.5 256.7 256.7 256.7 256.8 257.1 257.4 257.5 257.9 258.1 258.2 258.4 258.4 258.4 258.4 258.4 258.5 258.5 258.7 258.8 259.3 260.0 260.2 260.8 261.0 261.5 261.6 261.8 261.9 261.9 261.9 261.9 262.2 262.2 262.2 262.2 262.2 262.2 261.9 261.5 261.5 261.6 262.1 262.4 262.7 263.0 263.0 263.1 263.4 263.6 263.7 263.7 263.9 263.9 263.9 263.9 263.9 264.0 263.6 263.6 263.6 263.6 263.4 263.3 263.1 263.0 262.8 262.7 262.5 262.4 262.4 262.2 262.1 261.8 261.6 261.5 261.3 261.2 260.9 260.5 260.2 259.9 259.8 259.6 259.7 259.7 259.7 259.7 259.7 259.7 259.5 259.5
251.8 252.3 252.3 252.8 252.9 253.2 253.7 254.0 254.3 254.7 254.9 255.2 255.5 255.5 255.6 255.8 255.8 256.1 256.1 256.1 256.1 256.1 256.1 256.1 256.1 256.1 256.1 256.1 256.1 256.1 256.1 256.1 256.1 256.1 256.3 256.3 256.3 256.3 256.3 256.3 256.3 256.3 256.3 256.3 256.3 256.3 256.3 256.1 256.1 256.1 256.0 255.7 255.4 254.2 252.7 251.2 250.0 249.4 249.6 250.2 251.4 252.2 253.1 254.0 254.9 255.2 255.1 254.5 253.8 252.4 251.2 249.6 248.4 247.4 246.7 246.6 246.6 247.3 247.9 248.8 249.7 250.4 250.8 250.8 251.1 251.3 251.6 251.8 252.2 252.4 252.5 252.5 252.8 252.8 252.7 252.6 252.8 253.4 253.9 255.1 255.7 256.3 256.3 256.3 256.0 256.0 256.0 256.0 256.3 256.8 257.1 257.4 257.8 257.7 258.1 258.1 258.0 258.2 258.2 258.5 258.7 259.0 259.2 259.6 260.0 260.5 261.2 261.2 261.6 261.8 262.1 262.1 262.1 262.1 262.1 262.2 262.2 262.2 262.2 262.2 262.2 261.9 261.8 261.8 261.8 262.2 262.5 262.8 263.1 263.1 263.3 263.6 263.9 263.9 263.9 264.2 264.2 264.2 264.2 264.2 264.0 263.9 263.9 263.9 263.7 263.6 263.4 263.3 263.1 263.0 262.8 262.7 262.5 262.5 262.4 262.2 262.1 261.8 261.8 261.5 261.3 261.2 261.1 260.8 260.5 260.3 260.1 259.9 260.0 260.0 260.0 260.0 259.8 259.7 259.5
251.2 251.8 252.0 252.6 252.8 253.1 253.5 254.0 254.3 254.6 254.9 255.2 255.5 255.7 255.7 255.8 255.8 255.9 256.1 256.1 256.1 256.1 256.1 256.1 256.1 256.1 256.1 256.1 256.1 256.1 256.1 256.1 256.1 256.3 256.4 256.4 256.4 256.4 256.6 256.6 256.6 256.6 256.6 256.6 256.4 256.4 256.4 256.3 256.3 256.3 256.1 256.0 255.6 254.4 252.6 251.1 249.9 249.4 249.7 250.5 251.7 252.8 253.9 254.8 255.6 255.9 255.9 255.3 254.9 253.9 252.6 251.3 250.1 248.7 247.5 246.7 246.1 246.4 246.7 247.4 247.9 248.6 248.9 249.1 249.4 249.7 249.8 250.3 250.6 250.8 250.7 250.7 251.0 251.0 251.2 251.3 251.8 252.4 253.3 254.2 255.0 255.6 255.8 255.8 255.6 255.6 255.6 255.8 255.9 256.5 256.8 257.2 257.4 257.6 257.7 257.9 257.9 258.2 258.4 258.7 259.0 259.3 259.6 260.1 260.4 261.0 261.5 261.5 261.8 262.1 262.2 262.2 262.2 262.2 262.2 262.2 262.4 262.4 262.2 262.2 262.2 262.1 262.1 262.1 262.1 262.4 262.7 263.0 263.3 263.3 263.4 263.7 264.0 264.2 264.2 264.3 264.6 264.6 264.6 264.6 264.2 264.2 264.2 264.0 263.9 263.9 263.6 263.4 263.3 263.1 263.0 262.8 262.7 262.5 262.5 262.4 262.2 262.1 261.9 261.8 261.5 261.5 261.5 261.2 260.9 260.6 260.6 260.5 260.3 260.3 260.1 260.1 260.0 259.8 259.7
250.7 251.2 251.7 252.1 252.6 253.1 253.4 254.0 254.3 254.6 254.9 255.2 255.5 255.8 255.8 255.8 255.8 255.8 255.9 255.9 255.9 255.9 255.9 255.9 255.9 255.9 255.9 256.1 256.1 256.1 256.1 256.1 256.3 256.4 256.4 256.4 256.6 256.6 256.7 256.9 256.9 256.9 256.9 256.9 256.6 256.6 256.6 256.6 256.6 256.4 256.3 256.0 255.4 254.2 252.5 251.0 249.7 249.4 249.9 250.8 252.0 253.4 254.7 255.6 256.0 256.3 256.3 255.9 255.6 254.9 253.9 252.7 251.2 249.7 248.3 247.0 246.2 246.0 246.1 246.5 246.8 247.0 247.5 247.8 248.1 248.2 248.4 248.8 249.2 249.1 249.3 249.5 249.6 249.8 250.1 250.8 251.5 252.1 252.6 253.2 254.0 254.8 255.1 255.1 255.3 255.3 255.5 255.6 255.8 256.2 256.5 256.8 257.3 257.6 257.8 258.1 258.3 258.6 258.7 259.0 259.5 259.8 260.1 260.5 261.1 261.5 261.8 261.8 262.1 262.2 262.2 262.2 262.2 262.2 262.2 262.4 262.5 262.5 262.4 262.4 262.4 262.2 262.2 262.4 262.4 262.5 262.8 263.1 263.4 263.4 263.6 263.9 264.2 264.3 264.3 264.5 264.6 264.6 264.6 264.6 264.5 264.5 264.3 264.2 264.2 264.1 263.7 263.6 263.5 263.3 263.1 263.0 262.8 262.7 262.5 262.5 262.2 262.2 262.1 261.9 261.8 261.8 261.6 261.3 261.2 260.9 260.9 260.9 260.6 260.6 260.3 260.2 260.1 260.0 259.8
250.4 250.6 251.2 251.7 252.2 252.9 253.4 254.0 254.3 254.6 254.9 255.2 255.5 255.6 255.8 255.8 255.8 255.8 255.8 255.8 255.8 255.8 255.8 255.8 255.8 255.8 255.8 255.9 255.9 255.9 256.1 256.1 256.4 256.4 256.4 256.6 256.7 256.9 256.9 257.2 257.2 257.2 257.2 257.2 256.9 256.9 256.9 256.7 256.7 256.4 256.3 255.6 255.1 253.8 252.3 250.9 249.9 249.5 250.2 251.1 252.3 253.8 255.1 255.8 256.3 256.6 256.6 256.3 256.0 255.6 254.7 253.5 252.2 250.4 248.9 247.6 246.7 246.4 246.2 246.3 246.6 246.8 247.2 247.7 248.0 248.1 248.5 248.8 248.8 249.0 249.3 249.4 249.6 249.9 250.2 251.0 251.6 252.1 252.5 253.1 253.5 254.3 254.6 254.8 255.2 255.2 255.5 255.7 256.0 256.1 256.4 256.7 257.3 257.6 257.9 258.4 258.7 259.1 259.2 259.5 260.1 260.4 260.7 261.0 261.5 261.8 262.1 262.1 262.2 262.4 262.4 262.4 262.4 262.4 262.4 262.5 262.5 262.5 262.5 262.5 262.5 262.4 262.4 262.7 262.7 262.7 263.0 263.3 263.6 263.6 263.9 264.2 264.3 264.5 264.5 264.6 264.8 264.8 264.8 264.8 264.9 264.9 264.5 264.6 264.3 264.0 263.9 263.8 263.4 263.4 263.1 263.1 263.0 262.8 262.7 262.5 262.4 262.2 262.2 262.1 261.9 261.9 261.8 261.5 261.3 261.2 261.2 261.0 260.9 260.7 260.6 260.6 260.3 260.1 260.0
250.1 250.1 250.7 251.4 252.2 252.7 253.4 254.0 254.3 254.6 254.9 255.2 255.5 255.5 255.6 255.8 255.8 255.8 255.8 255.8 255.8 255.8 255.8 255.8 255.8 255.8 255.8 255.8 255.8 255.8 256.1 256.1 256.4 256.4 256.4 256.7 256.9 257.0 257.2 257.5 257.5 257.5 257.5 257.5 257.2 257.2 257.1 256.7 256.8 256.5 256.1 255.5 254.5 253.5 252.1 251.3 250.6 250.2 250.7 251.6 252.6 254.2 255.2 256.0 256.4 256.7 256.7 256.6 256.3 256.0 255.3 254.1 252.7 251.0 249.7 248.4 247.5 247.4 246.8 246.9 247.0 247.3 247.6 248.2 248.7 249.0 249.3 249.6 249.8 250.3 250.6 250.7 250.9 251.2 251.5 251.9 252.5 252.8 253.4 254.1 254.4 254.8 254.9 255.3 255.4 255.4 255.5 255.8 256.1 256.3 256.6 256.9 257.5 257.8 258.1 258.8 259.0 259.3 259.8 260.3 260.7 261.0 261.4 261.7 261.8 262.1 262.2 262.4 262.4 262.5 262.5 262.5 262.5 262.5 262.5 262.5 262.5 262.5 262.5 262.5 262.5 262.5 262.7 262.8 262.8 263.0 263.1 263.4 263.8 263.8 264.1 264.4 264.5 264.6 264.6 264.8 265.0 265.0 265.0 265.0 265.0 265.0 264.7 264.7 264.5 264.2 264.1 263.7 263.6 263.4 263.3 263.1 263.1 262.8 262.8 262.5 262.5 262.2 262.2 262.2 261.9 261.9 261.9 261.6 261.5 261.5 261.3 261.2 261.0 260.9 260.9 260.7 260.6 260.3 260.1
249.8 249.8 250.4 251.1 252.0 252.8 253.4 254.0 254.3 254.6 254.9 255.2 255.3 255.5 255.5 255.6 255.8 255.8 255.8 255.8 255.8 255.6 255.6 255.6 255.6 255.8 255.8 255.8 255.8 255.8 255.9 256.1 256.4 256.4 256.6 256.7 257.0 257.2 257.5 257.8 257.8 257.8 257.8 257.8 257.5 257.5 257.0 256.7 256.6 256.3 256.0 255.3 254.3 253.4 252.5 251.9 251.3 251.2 251.3 252.1 252.9 254.3 255.4 256.1 256.4 256.7 256.9 256.9 256.6 256.3 255.7 254.7 253.0 251.4 250.4 249.3 248.8 248.6 248.2 247.8 247.6 247.8 248.3 248.9 249.5 249.8 250.3 250.8 251.1 251.7 252.2 252.5 252.7 253.0 253.2 253.5 254.0 254.3 254.7 255.2 255.5 255.6 255.6 255.7 255.7 255.7 255.6 256.0 256.1 256.4 256.9 257.2 257.6 257.9 258.4 258.9 259.4 259.7 260.3 260.9 261.4 261.7 261.8 262.1 262.1 262.2 262.4 262.5 262.5 262.5 262.5 262.5 262.5 262.5 262.5 262.5 262.5 262.5 262.5 262.5 262.7 262.7 262.8 263.0 263.0 263.1 263.3 263.6 263.7 263.7 264.0 264.3 264.7 264.8 264.8 265.0 265.0 265.0 265.0 265.0 265.0 265.0 264.6 264.7 264.7 264.4 264.0 263.9 263.8 263.6 263.5 263.1 263.1 262.8 262.8 262.7 262.5 262.4 262.2 262.2 261.9 261.9 261.9 261.8 261.6 261.6 261.5 261.3 261.2 261.0 261.0 260.9 260.7 260.4 260.2
249.7 249.7 250.1 250.7 251.6 252.8 253.4 254.0 254.3 254.6 254.9 255.0 255.2 255.5 255.5 255.5 255.6 255.6 255.6 255.6 255.6 255.5 255.5 255.5 255.5 255.6 255.6 255.8 255.8 255.8 255.8 256.1 256.4 256.6 256.7 256.9 257.2 257.5 257.8 258.1 258.1 258.1 258.1 258.1 257.8 257.6 257.2 256.7 256.2 255.9 255.6 255.2 254.3 253.5 252.9 252.5 252.1 251.9 251.9 252.1 253.1 254.3 255.5 256.1 256.4 256.7 257.0 257.0 256.7 256.6 256.0 255.1 253.5 252.1 251.2 250.5 250.1 249.8 249.5 248.9 248.4 248.0 248.5 249.1 249.7 250.0 250.9 251.5 252.2 252.8 253.2 253.7 254.2 254.5 255.0 255.1 255.2 255.5 255.6 255.9 256.0 256.0 256.0 256.0 256.2 256.2 256.2 256.5 256.4 256.7 257.2 257.5 257.8 258.1 258.6 258.9 259.3 259.8 260.6 261.2 261.8 261.9 262.1 262.2 262.2 262.2 262.6 262.5 262.5 262.5 262.5 262.5 262.5 262.5 262.5 262.5 262.5 262.7 262.7 262.7 262.8 262.8 263.0 263.1 263.1 263.3 263.6 263.7 263.9 263.9 264.2 264.5 264.7 265.0 265.0 265.0 265.0 265.0 265.0 265.0 265.0 265.0 264.8 264.7 264.7 264.4 264.0 264.0 263.7 263.8 263.4 263.3 263.1 262.8 262.8 262.8 262.5 262.5 262.2 262.2 262.1 261.9 261.9 261.9 261.8 261.6 261.6 261.5 261.3 261.2 261.0 261.0 260.7 260.6 260.6
249.7 249.7 250.0 250.6 251.5 252.6 253.4 253.8 254.3 254.4 254.7 254.9 255.2 255.3 255.3 255.5 255.5 255.5 255.5 255.5 255.5 255.5 255.5 255.5 255.5 255.5 255.5 255.8 255.8 255.8 255.8 256.1 256.4 256.7 256.7 257.0 257.3 257.8 258.1 258.2 258.5 258.4 258.4 258.4 258.1 257.8 257.3 256.7 256.1 255.8 255.5 255.2 254.4 254.0 253.6 253.3 253.0 252.7 252.5 252.5 253.0 254.2 255.3 256.1 256.6 256.9 257.0 257.0 256.7 256.7 256.1 255.2 253.7 252.7 252.0 251.3 251.4 251.1 250.7 250.1 249.5 248.5 248.6 249.1 249.7 250.0 250.8 251.4 252.4 253.0 253.4 254.1 254.9 255.2 255.6 255.7 255.9 256.0 256.0 256.1 256.3 256.3 256.3 256.3 256.6 256.6 256.6 256.9 257.1 257.4 257.7 258.0 258.1 258.4 258.5 258.8 259.1 259.7 260.7 261.3 261.9 261.9 262.3 262.2 262.2 262.2 262.3 262.3 262.5 262.5 262.5 262.5 262.5 262.5 262.5 262.5 262.5 262.8 262.8 262.8 262.8 263.0 263.1 263.1 263.1 263.4 263.7 263.9 264.0 264.0 264.4 264.7 264.6 265.0 265.0 265.0 265.0 265.0 265.0 265.0 265.0 265.0 265.0 264.7 264.7 264.4 264.0 264.0 263.7 263.7 263.4 263.4 263.1 263.0 262.8 262.8 262.5 262.5 262.2 262.2 262.2 261.9 261.9 261.9 261.9 261.6 261.6 261.6 261.3 261.3 261.2 261.0 260.9 260.7 260.7
249.7 249.9 250.2 250.8 251.7 252.4 253.4 253.7 254.3 254.3 254.6 254.7 255.0 255.0 255.0 255.3 255.3 255.3 255.3 255.3 255.3 255.5 255.5 255.5 255.5 255.5 255.5 255.6 255.8 255.8 255.8 256.1 256.4 256.7 256.9 257.2 257.5 257.9 258.3 258.4 258.5 258.8 258.7 258.7 258.5 258.2 257.5 256.9 256.1 255.8 255.5 255.4 255.0 254.9 254.7 254.4 254.1 253.6 253.3 253.1 253.4 254.4 255.4 256.1 256.7 257.0 257.0 257.0 256.9 256.7 256.3 255.2 253.9 252.8 252.4 251.9 252.4 252.3 252.2 251.6 250.7 249.9 249.3 249.2 249.5 249.8 250.5 250.9 251.6 252.2 253.1 253.7 254.4 255.1 255.6 255.9 256.2 256.1 256.1 256.1 256.2 256.5 256.5 256.5 256.7 256.9 256.9 257.2 257.5 257.8 258.3 258.4 258.6 258.7 258.7 259.0 259.3 260.0 260.7 261.3 261.7 261.9 262.0 262.2 262.2 262.2 262.2 262.2 262.5 262.5 262.5 262.5 262.5 262.5 262.5 262.5 262.7 262.8 262.8 262.8 262.8 263.1 263.1 263.3 263.3 263.4 263.7 264.1 264.3 264.2 264.3 264.7 264.8 265.0 265.0 265.0 265.0 265.0 265.0 265.0 265.0 265.0 264.8 264.7 264.7 264.4 264.0 264.0 263.9 263.7 263.4 263.4 263.1 263.1 263.0 262.8 262.7 262.5 262.4 262.2 262.2 261.9 261.9 261.9 261.9 261.8 261.6 261.6 261.5 261.3 261.3 261.0 261.0 260.9 260.9
250.1 250.2 250.5 251.1 252.0 252.6 253.4 253.7 254.1 254.3 254.4 254.6 254.7 254.9 254.9 255.0 255.2 255.2 255.2 255.2 255.2 255.3 255.3 255.3 255.3 255.5 255.5 255.5 255.8 255.8 255.8 256.1 256.4 256.7 257.0 257.3 257.6 258.1 258.2 258.5 258.7 258.9 259.1 259.1 258.6 258.3 257.7 257.0 256.3 255.8 255.7 255.5 255.4 255.4 255.6 255.5 255.2 254.7 254.2 253.9 254.2 254.8 255.5 256.1 256.7 257.0 257.0 257.2 257.0 256.7 256.5 255.2 254.0 252.9 252.6 252.7 253.3 253.5 253.5 252.9 252.2 251.6 250.6 249.9 249.5 249.7 249.9 250.2 250.8 251.4 252.2 252.8 253.4 254.2 255.0 255.5 255.8 256.0 256.1 256.1 256.1 256.3 256.3 256.2 256.7 257.0 257.2 257.5 257.8 258.1 258.8 258.7 259.1 259.0 259.0 259.3 259.6 260.1 260.7 261.3 261.6 261.9 261.9 262.0 262.2 262.2 262.2 262.2 262.3 262.3 262.5 262.5 262.5 262.5 262.5 262.5 262.8 262.8 262.8 262.8 262.8 263.1 263.1 263.3 263.4 263.6 263.7 264.0 264.2 264.4 264.4 264.6 265.0 265.0 265.0 265.0 265.0 265.0 265.0 265.0 265.0 265.0 264.6 264.7 264.7 264.4 264.0 264.0 264.1 263.7 263.4 263.4 263.1 263.1 263.1 262.8 262.8 262.5 262.5 262.2 262.2 262.1 261.9 261.9 261.9 261.9 261.6 261.6 261.6 261.3 261.3 261.2 261.0 261.0 261.0
250.5 250.7 251.0 251.6 252.3 253.0 253.4 253.7 254.0 254.1 254.3 254.4 254.6 254.7 254.7 254.9 255.0 255.0 255.0 255.0 255.2 255.2 255.2 255.2 255.2 255.5 255.5 255.7 255.8 255.8 255.8 256.1 256.4 256.7 257.0 257.3 257.8 258.3 258.4 258.7 258.9 259.1 259.2 259.2 258.5 258.3 257.6 257.2 256.6 256.0 256.0 255.7 255.7 255.7 256.0 256.0 255.9 255.6 255.2 254.9 255.0 255.0 255.7 256.1 256.7 257.0 257.2 257.4 257.2 256.7 256.4 255.4 254.3 253.6 253.5 253.8 254.4 254.7 254.8 254.1 253.5 252.9 252.2 251.2 250.4 250.0 249.8 249.9 250.4 251.0 251.6 252.0 252.7 253.3 253.8 254.6 255.3 255.6 256.0 255.9 255.9 255.9 255.9 256.1 256.7 257.0 257.3 257.8 258.1 258.5 258.9 259.1 259.2 259.3 259.5 259.6 260.1 260.2 260.9 261.3 261.6 261.9 261.9 261.9 262.0 262.2 262.2 262.2 262.2 262.2 262.5 262.5 262.5 262.5 262.5 262.7 262.8 262.8 262.8 262.8 262.8 263.1 263.1 263.1 263.4 263.8 263.7 264.0 264.0 264.3 264.5 264.6 265.0 265.0 265.0 265.0 265.0 265.0 265.0 265.0 265.0 265.0 264.7 264.7 264.5 264.4 264.0 264.1 263.9 263.7 263.4 263.4 263.1 263.1 263.1 262.8 262.8 262.5 262.5 262.4 262.2 262.2 261.9 261.9 261.9 261.9 261.6 261.6 261.6 261.5 261.3 261.3 261.0 261.0 261.0
250.8 251.1 251.4 252.1 252.5 253.1 253.4 253.7 253.8 254.0 254.3 254.3 254.4 254.4 254.6 254.7 254.9 254.9 254.9 254.9 255.0 255.2 255.2 255.2 255.2 255.5 255.5 255.8 255.8 255.8 256.0 256.3 256.6 256.9 257.2 257.5 257.9 258.2 258.6 258.9 259.1 259.2 259.2 259.2 258.8 258.2 257.8 257.3 256.9 256.3 256.3 256.0 256.0 256.0 256.3 256.3 256.3 256.0 255.7 255.6 255.4 255.5 255.8 256.3 256.7 257.0 257.3 257.3 257.3 256.7 256.4 255.5 255.0 254.6 254.6 254.9 255.5 255.6 255.6 255.2 254.7 254.3 253.5 252.6 251.6 251.0 250.5 250.3 250.4 251.1 251.3 251.8 252.2 252.8 253.3 254.2 255.0 255.5 255.6 255.8 255.8 255.8 255.8 256.1 256.7 257.2 257.5 257.9 258.2 258.5 258.8 259.2 259.3 259.6 260.0 260.1 260.6 260.6 261.0 261.3 261.6 261.9 261.9 261.9 261.9 262.2 262.2 262.2 262.2 262.2 262.5 262.5 262.5 262.5 262.5 262.8 262.8 262.8 262.8 262.8 262.8 263.1 263.1 263.1 263.4 263.7 263.7 264.0 264.0 264.3 264.7 264.8 265.0 265.0 265.0 265.0 265.0 265.0 265.0 265.0 265.0 264.8 264.7 264.7 264.3 264.4 264.1 263.9 263.7 263.8 263.4 263.5 263.1 263.1 263.2 262.8 262.8 262.5 262.5 262.5 262.2 262.2 261.9 261.9 261.9 261.9 261.6 261.6 261.6 261.6 261.3 261.3 261.0 261.0 260.8
251.1 251.4 251.7 252.1 252.4 253.1 253.3 253.7 253.9 254.0 254.3 254.3 254.3 254.3 254.6 254.6 254.7 254.9 254.9 254.9 254.9 255.0 255.2 255.2 255.2 255.5 255.5 255.8 255.8 255.8 256.1 256.4 256.7 257.0 257.3 257.7 258.1 258.4 258.6 258.9 259.2 259.2 259.2 259.2 258.9 258.5 257.9 257.5 257.2 256.6 256.6 256.3 256.3 256.5 256.6 256.6 256.6 256.5 256.2 256.0 255.8 256.2 256.1 256.8 257.1 257.4 257.5 257.3 257.3 256.9 256.4 255.7 255.4 255.1 255.3 255.6 256.0 256.0 256.0 255.9 255.8 255.5 254.7 254.2 253.2 252.4 251.8 251.3 251.1 251.4 251.4 251.8 252.3 252.9 253.5 254.4 255.0 255.5 255.7 255.8 255.8 255.8 256.0 256.3 256.9 257.5 258.0 258.1 258.4 258.7 259.0 259.4 259.7 260.0 260.3 260.6 260.9 260.9 261.2 261.5 261.8 261.9 262.1 262.1 262.1 262.2 262.2 262.2 262.2 262.2 262.5 262.5 262.5 262.5 262.5 262.8 262.8 262.8 262.8 262.8 262.8 263.1 263.1 263.1 263.4 263.7 263.7 264.0 264.0 264.3 264.6 265.0 265.0 265.0 265.0 265.0 265.0 265.0 265.0 265.0 265.0 264.6 264.7 264.7 264.4 264.2 264.1 263.7 263.7 263.6 263.5 263.3 263.1 263.2 262.9 262.8 262.6 262.5 262.5 262.3 262.2 262.2 261.9 261.9 261.9 261.9 261.6 261.6 261.6 261.4 261.3 261.1 261.0 261.0 260.7
251.4 251.7 252.1 252.3 252.6 253.1 253.6 253.9 254.0 254.2 254.3 254.5 254.5 254.5 254.6 254.6 254.8 254.9 254.9 254.9 254.9 255.1 255.2 255.2 255.2 255.5 255.5 255.8 255.8 255.8 256.1 256.4 256.7 257.0 257.3 257.6 258.3 258.6 258.6 258.9 259.0 259.2 259.2 259.2 258.9 258.6 258.1 257.9 257.3 256.9 256.9 256.8 256.8 256.9 256.9 256.9 256.9 256.9 256.8 256.7 256.7 256.8 256.9 257.4 257.7 258.0 257.8 257.5 257.5 257.0 256.4 255.8 255.5 255.6 255.7 256.0 256.3 256.3 256.3 256.3 256.3 256.2 256.0 255.7 255.0 254.0 253.2 252.6 252.1 251.9 251.7 252.2 252.8 253.4 254.2 254.9 255.6 255.7 255.8 256.0 256.0 256.0 256.3 256.8 257.4 258.0 258.4 258.6 258.7 259.1 259.4 259.5 259.8 260.1 260.4 260.7 261.0 261.2 261.3 261.6 261.9 261.9 262.2 262.2 262.2 262.2 262.2 262.2 262.2 262.2 262.5 262.5 262.5 262.5 262.5 262.8 262.8 262.8 262.8 262.8 262.8 263.1 263.1 263.1 263.4 263.7 263.7 264.0 264.0 264.3 264.6 265.0 265.0 265.0 265.0 265.0 265.0 265.0 265.0 265.0 265.0 264.7 264.7 264.5 264.2 264.1 264.1 263.7 263.8 263.4 263.2 263.1 263.1 262.9 262.8 262.9 262.5 262.5 262.5 262.2 262.2 262.0 261.9 261.9 261.9 261.9 261.6 261.6 261.6 261.3 261.3 261.0 260.8 260.8 260.7
251.7 251.8 252.1 252.5 252.8 253.0 253.7 254.0 254.2 254.3 254.5 254.6 254.6 254.6 254.8 254.8 254.9 254.9 255.1 255.1 255.1 255.2 255.2 255.2 255.2 255.5 255.5 255.8 255.8 255.8 256.1 256.6 256.9 257.2 257.5 257.8 258.2 258.6 258.6 258.9 258.9 259.2 259.2 259.0 258.9 258.6 258.3 258.0 257.5 257.4 257.2 257.2 257.2 257.2 257.2 257.2 257.2 257.4 257.4 257.4 257.4 257.6 257.9 258.2 258.5 258.4 258.3 258.0 257.8 257.4 256.8 256.4 256.0 256.0 256.0 256.3 256.4 256.6 256.6 256.6 256.8 256.8 256.8 256.5 255.9 255.4 254.5 253.6 253.0 252.5 252.2 252.6 253.3 254.0 255.0 255.6 256.0 256.0 256.2 256.3 256.5 256.5 256.8 257.2 257.8 258.5 258.8 258.9 259.1 259.2 259.5 259.6 260.0 260.3 260.6 260.9 261.2 261.3 261.3 261.6 261.9 261.9 262.2 262.2 262.2 262.2 262.2 262.2 262.2 262.2 262.5 262.5 262.5 262.5 262.5 262.6 262.8 262.8 262.8 262.8 262.8 263.1 263.1 263.1 263.4 263.7 263.7 264.0 264.0 264.3 264.6 265.0 265.0 265.0 265.0 265.0 265.0 265.0 265.0 264.8 264.8 264.7 264.5 264.4 264.1 263.9 263.9 263.8 263.6 263.5 263.1 262.9 262.9 262.8 262.8 262.6 262.5 262.5 262.5 262.2 262.2 261.9 261.9 261.9 261.9 261.7 261.6 261.4 261.4 261.3 261.1 261.0 260.7 260.7 260.5
251.8 252.0 252.3 252.4 252.7 253.2 253.8 254.1 254.5 254.5 254.6 254.8 254.8 254.8 254.9 255.1 255.1 255.1 255.2 255.2 255.2 255.2 255.2 255.2 255.2 255.5 255.5 255.8 255.8 255.8 256.3 256.7 257.0 257.3 257.6 258.0 258.2 258.6 258.6 258.9 258.9 259.2 259.0 258.9 258.9 258.6 258.2 257.9 257.8 257.8 257.7 257.7 257.7 257.7 257.7 257.7 257.7 257.8 257.8 257.8 258.0 258.3 258.6 258.8 258.9 258.7 258.8 258.5 258.1 257.8 257.2 256.9 256.8 256.5 256.5 256.6 256.6 256.9 256.9 256.9 257.2 257.2 257.2 256.9 256.5 256.0 255.3 254.6 253.7 252.9 252.7 252.9 253.5 254.4 255.4 256.0 256.1 256.3 256.6 256.6 256.9 256.9 257.2 257.7 258.1 258.5 258.9 259.1 259.2 259.4 259.7 260.0 260.1 260.4 260.7 261.0 261.3 261.3 261.5 261.6 261.9 261.9 262.2 262.2 262.2 262.2 262.2 262.2 262.2 262.2 262.5 262.5 262.5 262.5 262.7 262.5 262.8 262.8 262.8 262.8 262.8 263.1 263.1 263.1 263.4 263.8 263.7 264.1 264.0 264.3 264.7 264.8 265.0 265.0 265.0 265.0 265.0 265.0 264.8 264.7 264.5 264.5 264.4 264.2 263.9 263.8 263.7 263.6 263.5 263.3 262.9 262.8 262.8 262.6 262.7 262.5 262.5 262.5 262.3 262.2 262.2 261.9 261.9 261.9 261.9 261.6 261.6 261.3 261.3 261.1 261.0 260.8 260.5 260.5 260.4
252.0 252.1 252.4 252.6 252.9 253.5 254.1 254.6 254.8 254.8 254.8 254.9 254.9 254.9 255.1 255.2 255.2 255.2 255.4 255.4 255.4 255.4 255.4 255.4 255.4 255.5 255.5 255.8 255.8 256.0 256.4 256.9 257.2 257.5 257.8 257.9 258.2 258.6 258.5 258.9 258.9 259.0 258.9 258.9 258.9 258.5 258.4 258.1 258.1 258.1 258.1 258.1 258.1 258.1 258.1 258.1 258.1 258.1 258.1 258.3 258.4 258.7 259.1 259.1 259.1 259.1 259.1 258.7 258.6 258.3 257.7 257.4 257.2 257.1 257.1 257.1 257.1 257.2 257.2 257.2 257.5 257.5 257.5 257.2 256.9 256.3 255.9 255.3 254.6 253.6 252.9 253.2 254.0 254.9 255.7 256.3 256.3 256.6 256.9 257.1 257.2 257.4 257.7 258.1 258.5 258.7 258.8 259.2 259.2 259.5 259.8 260.1 260.3 260.4 260.7 261.0 261.1 261.3 261.4 261.6 261.9 261.9 262.0 262.0 262.2 262.2 262.2 262.2 262.2 262.2 262.5 262.5 262.5 262.5 262.8 262.5 262.8 262.9 262.8 262.8 262.8 263.2 263.1 263.1 263.5 263.5 263.8 263.9 264.1 264.4 264.5 264.5 264.8 265.0 265.0 265.0 264.8 264.8 264.7 264.5 264.4 264.4 264.2 264.1 263.8 263.6 263.6 263.5 263.3 262.9 262.8 262.6 262.6 262.5 262.3 262.3 262.3 262.3 262.2 262.2 262.0 261.9 261.9 261.9 261.7 261.6 261.4 261.1 261.1 261.0 260.8 260.5 260.4 260.4 260.2
252.3 252.3 252.6 252.9 253.4 254.0 254.6 255.3 255.3 255.1 255.1 255.1 255.1 255.1 255.2 255.4 255.4 255.4 255.5 255.5 255.5 255.5 255.5 255.5 255.5 255.5 255.5 255.8 255.8 256.1 256.6 257.2 257.5 257.8 258.1 258.1 258.2 258.5 258.7 258.9 258.9 258.9 258.9 258.9 258.9 258.8 258.8 258.4 258.4 258.4 258.4 258.4 258.4 258.4 258.4 258.4 258.4 258.4 258.4 258.6 258.8 259.1 259.2 259.2 259.2 259.2 259.2 259.1 259.1 258.8 258.2 257.8 257.7 257.5 257.5 257.5 257.5 257.5 257.5 257.5 257.6 257.6 257.6 257.5 257.2 256.8 256.3 255.7 255.3 254.6 253.8 253.9 254.6 255.4 256.0 256.4 256.6 256.9 257.2 257.3 257.5 257.9 258.2 258.5 258.5 258.9 259.1 259.2 259.1 259.5 259.8 260.1 260.4 260.4 260.5 260.8 261.0 261.3 261.3 261.6 261.7 261.9 261.9 261.9 262.0 262.2 262.2 262.2 262.2 262.2 262.5 262.5 262.5 262.5 262.9 262.5 262.6 262.6 262.8 262.8 262.8 262.9 263.2 263.1 263.2 263.4 263.5 263.7 263.9 264.2 264.4 264.4 264.4 264.8 264.8 264.8 264.7 264.7 264.5 264.4 264.2 264.2 264.1 263.9 263.6 263.4 263.4 263.3 262.9 262.8 262.6 262.5 262.5 262.3 262.2 262.2 262.2 262.2 262.2 262.0 261.9 261.9 261.9 261.8 261.6 261.4 261.1 261.0 261.0 260.8 260.5 260.4 260.2 260.2 259.9
252.6 252.6 252.9 253.2 254.0 254.9 255.3 255.7 255.7 255.4 255.4 255.4 255.4 255.4 255.4 255.5 255.7 255.7 255.7 255.7 255.7 255.7 255.7 255.5 255.5 255.5 255.7 255.8 256.0 256.4 257.1 257.5 258.0 258.1 258.4 258.4 258.4 258.7 258.9 258.8 258.8 258.8 259.1 258.8 258.8 258.9 258.9 258.8 258.8 258.8 258.7 258.7 258.7 258.7 258.7 258.7 258.7 258.7 258.7 258.7 258.8 259.2 259.2 259.2 259.4 259.4 259.2 259.2 259.2 258.9 258.5 258.1 258.1 258.0 258.0 258.0 258.0 258.0 258.0 258.0 258.0 257.8 257.8 257.8 257.5 257.2 256.6 256.2 255.7 255.3 254.9 254.7 255.3 255.7 256.3 256.6 256.9 257.2 257.3 257.5 257.6 258.0 258.3 258.6 258.7 258.9 259.2 259.2 259.4 259.5 259.8 260.1 260.2 260.2 260.4 260.7 261.0 261.1 261.3 261.4 261.6 261.7 261.7 261.9 261.9 262.0 262.2 262.2 262.2 262.2 262.5 262.5 262.5 262.5 262.6 262.5 262.5 262.5 262.6 262.8 262.8 262.8 262.9 263.2 263.1 263.5 263.4 263.6 263.7 264.1 264.2 264.2 264.4 264.5 264.5 264.5 264.5 264.5 264.4 264.2 264.1 264.0 263.9 263.5 263.5 263.3 263.3 262.9 262.8 262.6 262.5 262.3 262.3 262.2 262.1 262.1 262.1 262.1 262.1 261.9 261.9 261.7 261.8 261.4 261.4 261.1 261.0 260.8 260.8 260.5 260.2 260.2 259.9 259.9 259.6
253.1 253.1 253.4 253.9 254.6 255.4 255.9 256.0 256.0 255.7 255.5 255.5 255.5 255.5 255.7 255.7 255.8 255.8 255.8 255.8 255.8 255.8 255.8 255.7 255.7 255.9 256.2 256.1 256.4 257.1 257.7 258.2 258.4 258.6 258.7 258.7 258.7 258.9 258.8 259.1 259.1 259.1 259.2 259.1 259.1 259.1 258.8 258.9 258.9 258.9 259.1 259.1 259.1 259.1 259.1 259.1 259.1 259.1 259.1 259.1 259.1 259.2 259.2 259.2 259.3 259.3 259.2 259.2 259.2 258.9 258.6 258.4 258.4 258.4 258.4 258.4 258.4 258.4 258.4 258.4 258.4 258.3 258.1 258.1 257.8 257.5 256.9 256.6 256.0 255.7 255.2 255.3 255.7 256.0 256.4 256.7 257.0 257.3 257.5 257.8 257.8 257.9 258.2 258.6 258.9 258.9 259.2 259.2 259.3 259.5 259.8 260.1 260.1 260.1 260.4 260.7 261.0 261.0 261.1 261.3 261.6 261.6 261.6 261.7 261.9 261.9 262.0 262.0 262.2 262.2 262.3 262.5 262.5 262.5 262.5 262.5 262.5 262.5 262.5 262.6 262.8 262.9 262.8 262.9 263.2 263.3 263.2 263.2 263.5 263.9 263.9 263.8 264.2 264.1 264.1 264.2 264.2 264.2 264.2 263.8 263.9 263.9 263.5 263.5 263.3 262.9 263.0 262.8 262.6 262.5 262.3 262.2 262.2 262.1 261.7 261.7 261.7 261.7 261.7 261.7 261.8 261.4 261.4 261.3 261.1 260.8 260.8 260.5 260.5 260.2 259.9 259.9 259.6 259.6 259.3
253.9 254.1 254.4 254.8 255.3 255.9 256.3 256.3 256.1 256.0 255.7 255.7 255.7 255.7 255.8 255.8 256.0 256.0 256.0 256.0 256.0 256.0 256.0 256.2 256.2 256.3 256.6 256.8 257.3 257.7 258.3 258.8 258.9 259.1 259.1 259.1 259.1 259.1 259.1 259.2 259.2 259.2 259.2 259.2 259.2 259.2 259.1 259.1 259.1 259.1 259.2 259.2 259.2 259.2 259.2 259.2 259.2 259.2 259.2 259.2 259.2 259.2 259.2 259.2 259.2 259.2 259.2 259.2 259.2 258.8 258.7 258.7 258.7 258.7 258.7 258.7 258.7 258.7 258.7 258.8 258.8 258.8 258.4 258.5 258.1 257.8 257.4 256.9 256.3 255.8 255.4 255.7 255.8 256.1 256.6 256.9 257.2 257.5 257.8 258.1 258.1 258.1 258.2 258.3 258.7 258.9 259.0 259.2 259.2 259.5 259.8 259.9 260.1 260.1 260.4 260.7 260.8 260.8 261.0 261.3 261.4 261.6 261.6 261.6 261.7 261.9 261.9 261.9 262.0 262.2 262.2 262.5 262.5 262.5 262.5 262.5 262.5 262.5 262.5 262.5 262.6 262.6 262.8 262.8 262.9 262.9 263.1 263.1 263.4 263.6 263.5 263.7 263.8 264.1 264.1 263.8 263.8 263.9 263.9 263.8 263.6 263.6 263.5 263.3 262.9 262.8 262.6 262.6 262.5 262.3 262.2 262.1 262.1 261.7 261.6 261.4 261.4 261.4 261.4 261.4 261.5 261.1 261.1 261.1 260.8 260.5 260.5 260.2 260.2 259.9 259.6 259.6 259.3 259.3 259.0
254.9 255.0 255.3 255.6 255.9 256.3 256.4 256.4 256.3 256.3 256.0 256.0 256.0 256.0 256.0 256.0 256.1 256.3 256.3 256.3 256.3 256.3 256.3 256.6 256.6 256.8 257.1 257.4 257.9 258.3 258.8 259.1 259.2 259.2 259.2 259.2 259.2 259.2 259.2 259.2 259.2 259.2 259.2 259.2 259.2 259.2 259.2 259.2 259.2 259.2 259.2 259.2 259.2 259.2 259.2 259.2 259.2 259.2 259.2 259.2 259.2 259.2 259.1 259.1 259.2 259.2 259.2 259.2 259.2 259.1 259.1 259.1 259.1 259.1 259.1 259.1 259.1 259.1 259.1 258.9 258.9 258.9 258.8 258.6 258.4 258.3 257.8 257.2 256.8 256.2 255.6 255.8 256.0 256.3 256.9 257.0 257.5 257.8 258.1 258.5 258.4 258.4 258.6 258.4 258.5 258.9 258.9 259.0 259.2 259.5 259.6 259.8 259.9 260.1 260.4 260.5 260.7 260.7 261.0 261.1 261.3 261.4 261.4 261.6 261.6 261.7 261.9 261.9 261.9 262.2 262.2 262.3 262.3 262.5 262.5 262.5 262.5 262.5 262.5 262.5 262.5 262.5 262.6 262.6 262.8 262.8 263.2 263.2 263.2 263.2 263.4 263.5 263.7 263.9 263.9 263.8 263.8 263.5 263.6 263.6 263.2 263.2 263.3 262.9 262.8 262.6 262.5 262.5 262.3 262.2 262.1 261.7 261.7 261.6 261.4 261.3 261.1 261.1 261.1 261.1 260.9 260.8 260.8 260.8 260.5 260.4 260.2 259.9 259.9 259.6 259.5 259.3 259.0 259.0 258.7
255.6 255.8 255.9 256.0 256.3 256.6 256.6 256.6 256.6 256.4 256.3 256.3 256.3 256.3 256.3 256.3 256.3 256.4 256.6 256.6 256.6 256.6 256.6 256.9 256.9 257.0 257.3 257.7 258.0 258.6 258.9 259.2 259.2 259.2 259.2 259.2 259.2 259.2 259.2 259.2 259.2 259.2 259.2 259.2 259.2 259.2 259.2 259.2 259.2 259.2 259.2 259.2 259.2 259.2 259.2 259.2 259.2 259.2 259.2 259.2 259.2 259.2 259.4 259.4 259.1 259.2 259.2 259.2 259.2 259.2 259.2 259.2 259.2 259.2 259.2 259.2 259.2 259.2 259.2 259.1 259.1 259.1 258.9 258.7 258.7 258.8 258.3 257.7 257.4 256.8 256.4 256.1 256.5 256.8 257.2 257.2 257.6 258.1 258.5 258.5 258.8 258.8 258.9 258.8 258.7 258.9 258.9 258.8 259.2 259.3 259.5 259.8 259.8 260.1 260.4 260.4 260.7 260.7 260.8 261.0 261.1 261.3 261.3 261.4 261.6 261.6 261.9 261.9 261.9 262.2 262.2 262.2 262.2 262.3 262.5 262.5 262.5 262.5 262.5 262.5 262.5 262.5 262.5 262.5 262.6 262.8 263.0 262.9 263.1 263.1 263.2 263.4 263.6 263.6 263.6 263.6 263.6 263.5 263.2 263.3 263.1 263.1 263.0 262.8 262.7 262.5 262.3 262.3 262.2 262.1 261.7 261.6 261.6 261.4 261.1 261.1 260.8 260.8 260.8 260.8 260.5 260.5 260.5 260.5 260.2 260.2 259.9 259.6 259.6 259.3 259.3 259.0 258.7 258.7 258.4
256.2 256.3 256.3 256.3 256.6 256.7 256.7 256.7 256.7 256.6 256.6 256.6 256.6 256.6 256.6 256.6 256.6 256.6 256.9 256.9 256.9 256.9 257.1 257.2 257.2 257.2 257.5 257.6 257.9 258.6 258.9 259.0 259.2 259.2 259.2 259.2 259.2 259.2 259.2 259.2 259.2 259.2 259.2 259.2 259.2 259.2 259.2 259.2 259.2 259.2 259.2 259.2 259.2 259.2 259.4 259.4 259.1 259.1 259.1 259.1 259.1 259.4 259.5 259.5 259.4 259.2 259.2 259.2 259.2 259.2 259.2 259.2 259.2 259.2 259.1 259.1 259.1 259.1 259.1 259.2 259.2 259.2 259.1 259.0 259.0 259.1 258.8 258.3 258.0 257.4 257.1 257.0 257.1 257.2 257.5 257.5 257.8 258.2 258.5 258.7 258.9 258.9 258.8 258.9 258.9 258.9 258.8 258.8 259.2 259.2 259.5 259.8 259.8 260.1 260.2 260.4 260.7 260.7 260.7 261.0 261.0 261.1 261.1 261.3 261.4 261.6 261.7 261.7 261.9 262.0 262.2 262.2 262.2 262.2 262.3 262.3 262.3 262.3 262.3 262.5 262.5 262.5 262.5 262.5 262.5 262.7 262.6 262.8 262.9 262.9 263.1 263.3 263.3 263.3 263.3 263.3 263.3 263.3 263.1 262.9 263.0 263.0 262.6 262.7 262.3 262.4 262.2 262.2 262.1 261.7 261.6 261.4 261.4 261.1 260.8 260.8 260.5 260.5 260.5 260.3 260.2 260.2 260.2 260.2 259.9 259.9 259.6 259.3 259.3 259.0 259.0 258.7 258.4 258.4 258.1
256.6 256.6 256.6 256.6 256.7 256.9 256.9 256.9 256.9 256.9 256.9 256.9 256.9 256.9 256.9 256.9 256.9 256.9 257.0 257.0 257.2 257.2 257.6 257.5 257.5 257.5 257.7 257.6 257.9 258.4 258.7 258.9 259.0 259.0 259.2 259.2 259.2 259.2 259.2 259.2 259.2 259.2 259.2 259.2 259.2 259.2 259.2 259.2 259.2 259.2 259.2 259.1 259.1 259.4 259.5 259.5 259.4 259.4 259.4 259.4 259.4 259.5 259.5 259.5 259.5 259.2 259.1 259.2 259.2 259.2 259.2 259.2 259.2 259.1 259.4 259.4 259.4 259.4 259.4 259.1 259.2 259.2 259.2 259.4 259.4 259.2 259.1 258.8 258.5 258.0 257.9 257.7 257.5 257.7 257.8 258.0 258.1 258.4 258.7 258.9 259.1 259.1 259.1 258.8 258.8 258.8 259.1 259.1 259.2 259.4 259.4 259.8 259.8 260.1 260.1 260.4 260.5 260.5 260.7 260.8 261.0 261.0 261.0 261.1 261.3 261.4 261.4 261.6 261.7 261.9 262.0 262.2 262.2 262.2 262.2 262.2 262.2 262.2 262.2 262.3 262.3 262.3 262.3 262.3 262.3 262.3 262.5 262.6 262.8 262.8 263.0 263.0 263.0 263.0 263.0 263.0 263.0 263.0 263.0 262.8 262.6 262.6 262.5 262.3 262.2 262.0 262.0 262.1 261.7 261.6 261.4 261.1 261.1 260.8 260.5 260.5 260.2 260.2 260.2 259.9 259.9 259.9 259.9 259.9 259.8 259.6 259.3 259.2 259.2 258.9 258.5 258.2 258.1 257.9 257.8
256.7 256.7 256.9 256.9 256.9 257.0 257.0 257.0 257.0 257.2 257.2 257.2 257.2 257.2 257.2 257.2 257.2 257.2 257.2 257.4 257.5 257.5 257.6 257.6 257.6 257.6 257.6 257.8 257.9 258.2 258.6 258.7 258.9 258.9 259.0 259.2 259.2 259.2 259.2 259.2 259.2 259.2 259.2 259.2 259.2 259.2 259.2 259.2 259.2 259.2 259.2 259.4 259.4 259.5 259.5 259.5 259.5 259.5 259.5 259.5 259.5 259.5 259.5 259.5 259.5 259.4 259.4 259.1 259.1 259.2 259.2 259.2 259.1 259.4 259.5 259.5 259.5 259.5 259.5 259.4 259.2 259.2 259.2 259.5 259.5 259.4 259.2 259.1 258.7 258.7 258.5 258.1 258.0 258.1 258.3 258.4 258.4 258.8 258.9 259.1 259.2 259.2 259.2 259.1 259.1 259.1 259.2 259.2 259.1 259.5 259.7 259.8 259.8 260.1 260.1 260.4 260.4 260.4 260.5 260.7 260.8 260.8 260.8 261.0 261.1 261.1 261.1 261.4 261.6 261.7 261.9 262.1 262.2 262.2 262.2 262.2 262.2 262.2 262.2 262.2 262.2 262.2 262.2 262.2 262.2 262.2 262.3 262.5 262.7 262.7 262.6 262.6 262.6 262.6 262.6 262.6 262.6 262.6 262.6 262.7 262.5 262.5 262.3 262.0 262.0 261.9 261.9 261.7 261.6 261.4 261.1 260.8 260.8 260.5 260.2 260.2 259.9 259.9 259.7 259.6 259.4 259.4 259.6 259.6 259.6 259.3 259.2 259.0 259.0 258.7 258.3 258.0 257.8 257.5 257.3
256.9 256.9 257.0 257.0 257.0 257.0 257.2 257.2 257.2 257.3 257.3 257.3 257.3 257.5 257.5 257.5 257.5 257.7 257.7 257.8 257.8 257.8 257.8 257.8 257.8 257.8 257.8 257.9 258.0 258.3 258.3 258.5 258.7 258.9 258.9 259.0 259.0 259.0 259.2 259.2 259.2 259.2 259.2 259.2 259.2 259.2 259.2 259.2 259.2 259.2 259.2 259.5 259.5 259.5 259.5 259.5 259.5 259.5 259.5 259.5 259.5 259.5 259.5 259.5 259.5 259.5 259.5 259.4 259.4 259.1 259.2 259.2 259.4 259.5 259.5 259.5 259.5 259.5 259.5 259.5 259.2 259.2 259.2 259.3 259.3 259.3 259.2 259.2 259.1 258.9 258.6 258.4 258.4 258.4 258.8 258.8 258.8 258.9 259.1 259.2 259.2 259.2 259.2 259.2 259.2 259.2 259.4 259.4 259.4 259.4 259.8 259.8 259.8 260.1 260.1 260.4 260.4 260.4 260.4 260.5 260.5 260.5 260.5 260.8 260.8 260.8 260.8 261.1 261.4 261.6 261.7 261.7 262.1 262.0 262.2 262.2 262.2 262.2 262.2 262.0 262.1 262.1 262.1 262.2 262.2 262.2 262.2 262.3 262.3 262.3 262.3 262.3 262.3 262.3 262.3 262.3 262.3 262.3 262.3 262.3 262.3 262.3 262.2 261.9 261.9 261.7 261.7 261.6 261.4 261.1 260.8 260.5 260.5 260.2 259.9 259.7 259.6 259.6 259.5 259.3 259.0 259.0 259.3 259.3 259.3 259.2 259.0 258.7 258.7 258.4 258.1 257.8 257.5 257.0 256.8
257.0 257.0 257.2 257.2 257.2 257.2 257.3 257.3 257.3 257.5 257.5 257.5 257.5 257.6 257.6 257.8 257.8 258.2 258.1 258.1 258.1 258.1 258.1 258.1 258.1 258.1 258.1 258.1 258.1 258.2 258.4 258.6 258.6 258.6 258.9 258.9 258.9 258.9 259.2 259.2 259.2 259.2 259.2 259.2 259.2 259.2 259.2 259.2 259.2 259.2 259.2 259.3 259.3 259.5 259.5 259.5 259.5 259.5 259.5 259.5 259.5 259.5 259.5 259.5 259.5 259.5 259.5 259.5 259.5 259.4 259.4 259.4 259.5 259.5 259.5 259.5 259.5 259.5 259.5 259.5 259.2 259.2 259.2 259.2 259.2 259.2 259.2 259.2 259.2 258.9 258.8 258.8 258.8 258.8 258.9 258.9 258.9 259.1 259.2 259.2 259.2 259.2 259.2 259.1 259.4 259.4 259.5 259.5 259.5 259.7 259.8 259.8 259.8 260.1 260.1 260.2 260.2 260.2 260.2 260.2 260.4 260.4 260.4 260.5 260.5 260.5 260.5 260.8 261.1 261.5 261.4 261.6 261.7 261.9 262.1 262.0 262.1 262.1 262.1 262.0 261.7 261.7 261.7 262.1 262.1 262.1 262.1 262.2 262.2 262.2 262.0 262.0 262.0 262.0 262.0 262.0 262.0 262.0 262.0 262.2 262.2 262.2 262.0 261.9 261.9 261.6 261.6 261.6 261.3 261.0 260.7 260.2 260.0 259.7 259.4 259.3 259.3 259.3 259.3 259.0 258.9 258.9 259.0 259.2 259.2 259.0 258.7 258.4 258.4 258.1 257.8 257.5 257.2 256.5 256.6
257.2 257.2 257.4 257.4 257.3 257.3 257.5 257.5 257.5 257.7 257.6 257.6 257.8 257.8 257.8 257.9 258.2 258.2 258.5 258.4 258.4 258.4 258.4 258.4 258.4 258.4 258.4 258.4 258.4 258.4 258.5 258.6 258.7 258.7 258.9 258.9 258.9 258.8 259.2 259.2 259.2 259.2 259.2 259.2 259.2 259.2 259.2 259.2 259.2 259.2 259.2 259.2 259.2 259.5 259.5 259.5 259.5 259.5 259.5 259.5 259.5 259.5 259.5 259.5 259.5 259.5 259.5 259.5 259.5 259.5 259.5 259.5 259.5 259.5 259.5 259.5 259.5 259.5 259.5 259.5 259.2 259.2 259.2 259.2 259.2 259.2 259.2 259.2 259.2 258.8 258.9 258.9 258.9 258.9 258.9 258.9 258.9 259.2 259.2 259.2 259.2 259.2 259.2 259.4 259.5 259.5 259.5 259.5 259.7 259.8 259.8 259.8 259.8 260.1 260.1 260.1 260.1 260.1 260.1 260.1 260.2 260.2 260.3 260.0 260.0 260.2 260.2 260.5 260.6 260.9 261.1 261.4 261.6 261.7 261.7 261.9 261.7 261.7 261.8 261.6 261.4 261.5 261.4 261.5 261.7 261.7 261.7 262.1 262.1 262.1 261.9 261.9 261.9 261.7 261.7 261.7 261.9 261.9 261.9 262.1 262.1 262.1 261.9 261.9 261.9 261.6 261.6 261.6 261.3 260.8 260.5 259.9 259.6 259.3 259.0 259.0 259.0 259.0 259.0 258.7 258.7 258.7 258.7 258.8 258.8 258.7 258.4 258.3 258.1 257.8 257.5 257.2 256.9 256.3 256.3
257.3 257.3 257.3 257.3 257.3 257.5 257.7 257.6 257.6 257.6 257.8 257.8 257.9 258.2 258.2 258.1 258.2 258.4 258.5 258.8 258.8 258.8 258.8 258.8 258.7 258.7 258.7 258.7 258.7 258.7 258.7 258.7 258.9 258.9 258.8 258.8 258.8 259.1 259.2 259.2 259.2 259.2 259.2 259.2 259.2 259.2 259.2 259.2 259.2 259.2 259.2 259.2 259.2 259.3 259.5 259.5 259.5 259.5 259.5 259.5 259.5 259.5 259.5 259.5 259.5 259.5 259.5 259.5 259.5 259.5 259.5 259.5 259.5 259.5 259.5 259.3 259.3 259.5 259.5 259.5 259.4 259.2 259.2 259.2 259.2 259.2 259.2 259.2 259.2 259.1 258.9 258.9 258.9 258.9 258.9 258.9 258.9 259.2 259.2 259.2 259.2 259.2 259.2 259.5 259.5 259.5 259.5 259.5 259.6 259.8 259.8 259.8 259.8 259.9 259.9 259.9 259.9 259.9 259.9 259.9 259.9 259.9 259.7 259.6 259.6 259.7 259.7 260.0 260.2 260.5 260.8 261.1 261.3 261.5 261.5 261.6 261.5 261.5 261.2 261.1 261.2 260.9 261.1 261.1 261.5 261.4 261.6 261.7 261.7 261.7 261.7 261.7 261.7 261.6 261.4 261.6 261.7 261.7 261.7 261.7 261.7 261.7 261.7 261.7 261.7 261.6 261.6 261.4 261.1 260.7 260.4 259.8 259.5 259.0 258.9 258.9 258.9 258.7 258.7 258.4 258.2 258.2 258.2 258.2 258.4 258.4 258.1 258.1 257.8 257.5 257.2 256.9 256.6 255.9 255.9
257.3 257.3 257.5 257.5 257.5 257.7 257.6 257.8 257.8 257.8 257.9 258.2 258.1 258.3 258.2 258.2 258.4 258.5 258.7 258.9 258.9 258.9 258.9 258.9 259.1 259.1 259.1 259.1 259.1 259.1 259.1 259.1 259.1 259.1 259.1 259.1 259.1 259.2 259.2 259.2 259.2 259.2 259.2 259.2 259.2 259.2 259.2 259.2 259.2 259.2 259.2 259.2 259.2 259.2 259.3 259.3 259.5 259.5 259.5 259.5 259.5 259.5 259.5 259.5 259.5 259.5 259.5 259.5 259.5 259.5 259.5 259.5 259.5 259.3 259.3 259.2 259.2 259.3 259.3 259.3 259.3 259.2 259.2 259.2 259.2 259.2 259.2 259.2 259.2 259.2 258.8 258.9 258.9 258.9 258.9 258.9 258.9 259.2 259.2 259.2 259.2 259.2 259.2 259.5 259.5 259.5 259.5 259.5 259.5 259.8 259.8 259.8 259.8 259.8 259.8 259.8 259.8 259.8 259.8 259.6 259.6 259.6 259.3 259.3 259.3 259.3 259.3 259.6 259.9 260.0 260.5 260.6 260.8 260.9 260.9 260.9 260.9 261.0 260.8 260.7 260.7 260.5 260.6 260.8 260.9 261.1 261.3 261.5 261.4 261.4 261.4 261.4 261.4 261.4 261.3 261.4 261.4 261.4 261.4 261.6 261.6 261.6 261.6 261.6 261.6 261.6 261.6 261.3 261.0 260.7 260.4 259.8 259.5 259.0 258.8 258.8 258.9 258.6 258.4 257.9 257.6 257.6 257.6 257.6 257.9 257.9 257.8 257.6 257.5 257.2 256.9 256.6 256.3 255.8 255.6
257.3 257.5 257.7 257.7 257.7 257.6 257.8 258.0 257.9 257.9 258.1 258.3 258.3 258.2 258.4 258.4 258.6 258.7 258.9 258.9 258.9 258.8 259.1 259.1 259.2 259.2 259.2 259.2 259.2 259.2 259.2 259.2 259.2 259.2 259.2 259.2 259.2 259.2 259.2 259.2 259.1 259.1 259.1 259.1 259.1 259.1 259.1 259.2 259.2 259.2 259.2 259.2 259.2 259.2 259.2 259.2 259.3 259.5 259.5 259.5 259.5 259.5 259.5 259.5 259.5 259.5 259.5 259.5 259.5 259.5 259.5 259.5 259.5 259.2 259.2 259.2 259.2 259.2 259.2 259.2 259.2 259.2 259.2 259.2 259.2 259.2 259.2 259.2 259.2 259.2 259.1 258.8 258.9 258.8 258.8 259.1 259.1 259.2 259.2 259.2 259.2 259.2 259.2 259.5 259.5 259.5 259.5 259.5 259.5 259.6 259.8 259.8 259.8 259.8 259.8 259.8 259.6 259.6 259.6 259.5 259.5 259.3 259.2 259.2 259.0 259.0 259.0 259.3 259.6 259.6 260.0 260.2 260.5 260.5 260.5 260.5 260.5 260.3 260.4 260.0 260.0 260.0 260.2 260.3 260.5 260.8 260.8 260.9 261.1 261.2 261.2 261.2 261.2 261.2 261.1 261.1 261.1 261.1 261.3 261.4 261.4 261.4 261.4 261.4 261.4 261.4 261.4 261.3 261.0 260.7 260.4 260.0 259.6 259.4 259.1 259.1 258.9 258.6 258.1 257.3 257.0 256.8 257.0 257.0 257.3 257.3 257.3 257.2 257.2 256.9 256.6 256.3 256.0 255.7 255.5
257.5 257.7 257.6 257.6 257.6 257.8 258.0 257.9 258.1 258.1 258.3 258.2 258.2 258.4 258.6 258.6 258.5 258.9 258.9 258.9 258.8 259.1 259.2 259.2 259.2 259.2 259.2 259.2 259.2 259.2 259.2 259.2 259.2 259.2 259.2 259.2 259.2 259.2 259.1 259.1 259.4 259.4 259.4 259.4 259.4 259.4 259.4 259.2 259.2 259.2 259.2 259.2 259.2 259.2 259.2 259.2 259.2 259.3 259.5 259.5 259.5 259.5 259.5 259.5 259.5 259.5 259.5 259.5 259.5 259.5 259.5 259.3 259.3 259.2 259.2 259.2 259.2 259.2 259.2 259.2 259.2 259.2 259.2 259.2 259.2 259.2 259.2 259.2 259.2 259.2 259.2 259.1 259.1 259.1 259.1 259.2 259.2 259.2 259.2 259.2 259.2 259.2 259.2 259.3 259.5 259.5 259.5 259.5 259.5 259.5 259.6 259.6 259.6 259.6 259.6 259.6 259.5 259.5 259.5 259.5 259.3 259.2 259.2 259.0 258.7 258.7 258.7 259.0 259.3 259.3 259.6 259.9 260.2 260.2 260.2 260.2 260.0 259.9 259.7 259.4 259.4 259.6 259.7 259.9 260.2 260.5 260.5 260.5 260.6 260.6 260.6 260.6 260.6 260.6 260.8 260.8 260.8 260.8 261.1 261.1 261.1 261.1 261.3 261.3 261.3 261.3 261.3 261.1 261.0 260.7 260.4 260.3 260.0 259.5 259.2 259.2 258.9 258.4 257.8 256.9 256.3 256.2 256.3 256.5 256.7 256.9 256.9 256.9 256.9 256.6 256.3 256.0 255.6 255.3 255.4
257.7 257.6 257.6 257.6 257.8 258.0 257.9 258.1 258.3 258.3 258.3 258.4 258.4 258.6 258.5 258.5 258.7 258.9 258.9 258.8 259.1 259.2 259.2 259.2 259.2 259.2 259.2 259.2 259.2 259.2 259.2 259.2 259.1 259.1 259.1 259.1 259.1 259.1 259.4 259.4 259.5 259.5 259.5 259.5 259.5 259.5 259.5 259.2 259.2 259.2 259.2 259.2 259.2 259.2 259.2 259.2 259.2 259.2 259.3 259.3 259.5 259.5 259.5 259.5 259.5 259.5 259.5 259.5 259.5 259.5 259.3 259.2 259.2 259.2 259.2 259.2 259.2 259.2 259.2 259.2 259.2 259.2 259.2 259.2 259.2 259.2 259.2 259.2 259.2 259.2 259.2 259.2 259.2 259.2 259.2 259.2 259.2 259.2 259.2 259.2 259.2 259.2 259.2 259.2 259.5 259.5 259.5 259.5 259.5 259.5 259.5 259.5 259.5 259.5 259.5 259.5 259.5 259.5 259.5 259.3 259.2 259.2 259.2 258.9 258.6 258.4 258.4 258.5 258.8 259.0 259.3 259.6 259.7 259.7 259.7 259.7 259.6 259.4 259.1 259.0 259.0 259.3 259.3 259.6 259.9 260.2 260.2 260.2 260.2 260.2 260.2 260.2 260.2 260.2 260.5 260.5 260.5 260.5 260.8 260.8 261.0 261.0 261.1 261.1 261.1 261.1 261.1 261.0 260.8 260.7 260.4 260.2 260.1 259.7 259.4 259.4 258.9 258.2 257.4 256.5 256.1 255.9 255.9 256.3 256.3 256.4 256.4 256.4 256.4 256.1 255.8 255.7 255.4 255.0 255.1
257.6 257.6 257.8 257.8 258.0 257.9 258.1 258.3 258.3 258.3 258.4 258.6 258.5 258.7 258.8 258.8 258.9 258.9 258.9 259.1 259.2 259.2 259.2 259.2 259.2 259.2 259.2 259.2 259.2 259.1 259.1 259.1 259.4 259.4 259.4 259.4 259.4 259.4 259.5 259.5 259.5 259.5 259.5 259.5 259.5 259.5 259.5 259.4 259.2 259.2 259.2 259.2 259.2 259.2 259.2 259.2 259.2 259.2 259.2 259.2 259.3 259.5 259.5 259.5 259.5 259.5 259.5 259.5 259.3 259.3 259.2 259.2 259.2 259.2 259.2 259.2 259.2 259.2 259.2 259.2 259.2 259.2 259.2 259.2 259.2 259.2 259.2 259.2 259.2 259.2 259.0 259.0 259.0 259.0 259.0 259.0 259.0 259.2 259.2 259.2 259.2 259.2 259.2 259.2 259.3 259.3 259.5 259.5 259.5 259.5 259.5 259.5 259.5 259.5 259.5 259.5 259.5 259.5 259.3 259.2 259.2 259.2 259.0 258.9 258.4 258.1 257.9 258.1 258.4 258.7 259.0 259.3 259.3 259.3 259.3 259.3 259.3 259.0 258.7 258.7 258.7 259.0 259.0 259.3 259.6 259.9 259.9 259.9 259.9 259.9 259.9 259.7 259.9 259.9 260.2 260.2 260.2 260.4 260.5 260.7 260.8 260.8 260.8 261.0 261.0 260.8 260.8 260.8 260.7 260.5 260.2 260.1 260.1 259.8 259.5 259.5 259.1 258.4 257.5 256.4 255.9 255.6 255.6 255.8 255.8 255.8 255.8 255.6 255.6 255.5 255.2 255.2 254.9 254.8 254.5
257.8 257.8 257.9 257.9 257.9 258.1 258.3 258.3 258.2 258.4 258.6 258.5 258.7 258.9 258.9 258.9 258.9 258.9 258.8 259.2 259.2 259.2 259.2 259.2 259.2 259.2 259.2 259.2 259.1 259.4 259.4 259.4 259.5 259.5 259.5 259.5 259.5 259.5 259.5 259.5 259.5 259.5 259.5 259.5 259.5 259.5 259.5 259.5 259.2 259.2 259.2 259.2 259.2 259.2 259.2 259.2 259.2 259.2 259.2 259.2 259.2 259.3 259.5 259.3 259.3 259.3 259.3 259.3 259.2 259.2 259.2 259.2 259.2 259.2 259.2 259.2 259.2 259.2 259.2 259.2 259.2 259.2 259.2 259.2 259.2 259.2 259.2 259.2 259.0 259.0 258.9 258.9 258.9 258.9 258.9 258.9 258.9 259.0 259.0 259.2 259.2 259.2 259.2 259.2 259.2 259.2 259.3 259.3 259.3 259.5 259.5 259.5 259.5 259.5 259.5 259.5 259.3 259.3 259.2 259.2 259.2 259.0 258.9 258.7 258.1 257.8 257.5 257.6 257.9 258.2 258.5 258.6 258.8 258.8 258.8 258.8 258.8 258.7 258.4 258.4 258.6 258.9 258.9 259.2 259.5 259.6 259.6 259.6 259.4 259.4 259.4 259.3 259.4 259.6 259.9 259.9 259.9 260.2 260.2 260.5 260.5 260.5 260.7 260.8 260.8 260.7 260.7 260.7 260.5 260.4 260.1 260.1 259.9 259.8 259.5 259.5 259.2 258.8 257.8 256.6 255.8 255.5 255.3 255.1 255.2 255.0 254.8 254.7 254.7 254.5 254.4 254.4 254.2 254.3 254.1
257.9 257.9 258.1 258.1 258.1 258.3 258.3 258.2 258.4 258.6 258.5 258.7 258.9 258.9 258.9 258.9 258.9 258.8 259.1 259.2 259.2 259.2 259.2 259.2 259.2 259.2 259.2 259.1 259.4 259.5 259.5 259.5 259.5 259.5 259.5 259.5 259.5 259.5 259.5 259.5 259.5 259.5 259.5 259.5 259.5 259.3 259.3 259.3 259.2 259.2 259.2 259.2 259.2 259.2 259.2 259.2 259.2 259.2 259.2 259.2 259.2 259.2 259.3 259.2 259.2 259.2 259.2 259.2 259.2 259.2 259.2 259.2 259.2 259.2 259.2 259.2 259.2 259.2 259.2 259.2 259.2 259.2 259.2 259.2 259.2 259.2 259.0 259.0 258.9 258.9 258.9 258.9 258.9 258.9 258.9 258.9 258.9 258.9 258.9 259.0 259.2 259.2 259.2 259.2 259.2 259.2 259.2 259.2 259.2 259.3 259.3 259.3 259.5 259.5 259.3 259.3 259.2 259.2 259.2 259.2 259.0 258.9 258.7 258.4 258.0 257.5 257.2 257.0 257.1 257.4 257.7 257.9 258.2 258.2 258.2 258.2 258.2 258.2 257.9 258.1 258.4 258.7 258.9 259.2 259.3 259.3 259.3 259.3 259.0 259.0 259.0 259.0 259.0 259.3 259.6 259.6 259.8 259.9 260.1 260.2 260.2 260.4 260.5 260.7 260.7 260.7 260.7 260.5 260.4 260.2 260.1 259.9 259.8 259.8 259.5 259.5 259.2 258.9 258.4 256.9 256.0 255.5 255.0 254.7 254.5 254.2 253.9 253.7 253.5 253.4 253.4 253.6 253.6 253.6 253.8
258.1 258.1 258.3 258.3 258.3 258.2 258.2 258.4 258.6 258.6 258.8 258.9 258.9 258.9 258.9 258.9 258.8 259.1 259.2 259.2 259.2 259.2 259.2 259.2 259.2 259.2 259.2 259.4 259.5 259.5 259.5 259.5 259.5 259.5 259.5 259.5 259.5 259.5 259.5 259.5 259.5 259.5 259.5 259.3 259.3 259.2 259.2 259.2 259.2 259.2 259.2 259.2 259.2 259.2 259.2 259.2 259.2 259.2 259.2 259.2 259.2 259.2 259.2 259.2 259.2 259.2 259.2 259.2 259.2 259.2 259.2 259.2 259.2 259.2 259.2 259.2 259.2 259.2 259.2 259.2 259.2 259.2 259.2 259.2 259.0 259.0 258.9 258.9 258.9 258.9 258.9 258.9 258.9 258.9 258.9 258.9 258.9 258.9 258.9 258.9 259.0 259.2 259.2 259.2 259.2 259.2 259.2 259.2 259.2 259.2 259.2 259.2 259.3 259.3 259.2 259.2 259.2 259.2 259.2 259.2 258.9 258.9 258.6 258.3 257.8 257.2 256.7 256.4 256.4 256.4 257.0 257.3 257.6 257.6 257.4 257.4 257.4 257.6 257.5 257.8 258.1 258.4 258.7 259.0 259.0 259.0 259.0 259.0 258.7 258.7 258.7 258.6 258.8 259.2 259.3 259.3 259.6 259.8 259.9 260.1 260.1 260.2 260.4 260.5 260.5 260.5 260.5 260.4 260.4 260.1 259.9 259.8 259.8 259.6 259.5 259.3 259.2 258.9 258.7 257.3 256.3 255.5 254.9 254.4 254.1 253.8 253.5 252.9 252.8 252.8 252.8 253.2 253.2 253.2 253.5
258.2 258.2 258.2 258.2 258.2 258.4 258.4 258.6 258.6 258.6 258.7 258.9 258.9 258.9 258.8 258.8 259.1 259.2 259.2 259.2 259.2 259.2 259.2 259.2 259.2 259.2 259.4 259.5 259.5 259.5 259.5 259.5 259.5 259.5 259.5 259.5 259.5 259.5 259.5 259.5 259.3 259.3 259.3 259.2 259.2 259.2 259.2 259.2 259.2 259.2 259.2 259.2 259.2 259.2 259.2 259.2 259.2 259.2 259.2 259.2 259.2 259.2 259.2 259.2 259.2 259.2 259.2 259.0 259.0 259.0 259.2 259.2 259.2 259.2 259.2 259.2 259.2 259.2 259.2 259.2 259.2 259.2 259.2 259.0 258.9 258.9 258.9 258.9 258.9 258.9 258.7 258.7 258.7 258.7 258.7 258.7 258.7 258.9 258.9 258.9 258.9 259.0 259.2 259.2 259.2 259.2 259.2 259.2 259.2 259.2 259.2 259.2 259.2 259.2 259.2 259.2 259.2 259.2 259.2 259.0 258.9 258.7 258.4 258.1 257.5 256.8 256.4 255.9 255.7 255.9 256.3 256.7 257.0 257.0 256.6 256.5 256.5 256.8 256.9 257.5 257.8 258.1 258.2 258.5 258.5 258.5 258.5 258.5 258.4 258.5 258.5 258.7 258.9 259.2 259.2 259.2 259.5 259.8 259.8 260.1 260.1 260.1 260.2 260.4 260.4 260.4 260.4 260.2 260.2 259.9 259.8 259.8 259.8 259.5 259.3 259.2 259.0 258.7 258.2 257.4 256.5 255.5 254.9 254.5 254.0 253.7 253.4 252.9 252.8 252.8 252.8 252.9 252.9 253.1 253.2
258.4 258.4 258.4 258.4 258.4 258.6 258.6 258.6 258.6 258.6 258.7 258.9 258.9 258.9 259.1 259.1 259.2 259.2 259.2 259.2 259.2 259.2 259.2 259.2 259.1 259.1 259.5 259.5 259.5 259.5 259.5 259.5 259.5 259.5 259.5 259.5 259.5 259.5 259.5 259.3 259.2 259.2 259.2 259.2 259.2 259.2 259.2 259.2 259.2 259.2 259.2 259.2 259.2 259.2 259.2 259.2 259.0 259.0 259.0 259.0 259.0 259.0 259.0 259.0 259.0 259.0 259.0 258.9 258.9 258.9 259.0 259.0 259.2 259.2 259.2 259.2 259.2 259.2 259.2 259.2 259.2 259.0 259.0 258.9 258.9 258.9 258.9 258.7 258.7 258.7 258.6 258.6 258.6 258.6 258.6 258.6 258.5 258.9 258.9 258.9 258.9 258.9 259.0 259.2 259.2 259.2 259.2 259.0 259.0 259.0 259.0 259.2 259.2 259.2 259.2 259.2 259.0 259.0 259.0 258.9 258.7 258.6 258.3 257.8 257.4 256.7 256.2 255.8 255.7 255.8 255.9 256.0 256.3 256.4 256.2 255.9 255.9 256.0 256.7 257.2 257.5 257.6 257.6 257.9 258.1 258.1 258.1 258.0 258.2 258.6 258.7 258.9 258.8 259.2 259.2 259.2 259.5 259.8 259.8 259.9 259.9 260.1 260.1 260.2 260.2 260.2 260.2 260.1 260.1 259.8 259.8 259.6 259.6 259.3 259.0 258.8 258.7 258.3 257.6 257.0 256.3 255.6 254.9 254.6 254.0 253.7 253.4 253.1 252.8 252.8 252.8 252.8 252.8 252.9 252.9
258.6 258.6 258.6 258.6 258.6 258.6 258.6 258.6 258.8 258.8 258.9 258.9 258.9 258.8 259.2 259.2 259.2 259.2 259.2 259.2 259.2 259.2 259.2 259.1 259.4 259.4 259.5 259.5 259.5 259.5 259.5 259.5 259.5 259.5 259.5 259.5 259.5 259.3 259.3 259.2 259.2 259.2 259.2 259.2 259.2 259.2 259.2 259.2 259.2 259.2 259.0 259.0 259.0 259.0 259.0 259.0 258.9 258.9 258.9 258.9 258.9 258.9 258.9 258.9 258.9 258.9 258.9 258.9 258.9 258.9 258.9 258.9 259.2 259.2 259.2 259.2 259.2 259.2 259.2 259.0 259.0 258.9 258.9 258.9 258.7 258.7 258.7 258.6 258.6 258.4 258.4 258.4 258.4 258.6 258.6 258.6 258.6 258.9 258.9 258.9 258.9 258.9 258.9 259.0 259.0 259.0 259.0 258.9 258.9 258.9 258.9 258.8 258.8 258.8 258.8 258.8 258.7 258.7 258.7 258.7 258.4 258.4 258.1 257.7 257.2 256.7 256.3 255.8 255.8 255.8 255.8 255.8 255.9 255.9 255.9 255.8 255.8 255.8 256.6 256.7 257.0 257.0 257.0 257.3 257.6 257.6 257.8 257.9 258.2 258.5 258.9 258.9 259.1 259.2 259.2 259.2 259.5 259.6 259.8 259.8 259.8 259.9 260.1 260.1 260.1 260.1 260.1 260.1 259.9 259.8 259.8 259.5 259.3 259.0 258.7 258.4 258.0 257.4 256.8 256.2 255.8 255.4 254.7 254.4 254.0 253.7 253.4 253.3 253.0 252.7 252.8 252.8 252.8 252.6 252.6
258.6 258.6 258.6 258.6 258.6 258.6 258.8 258.8 258.9 258.9 258.9 258.9 258.9 259.1 259.2 259.2 259.2 259.2 259.2 259.2 259.2 259.2 259.2 259.4 259.5 259.5 259.5 259.5 259.5 259.5 259.5 259.5 259.5 259.5 259.5 259.5 259.5 259.2 259.2 259.2 259.2 259.2 259.2 259.2 259.2 259.2 259.2 259.2 259.2 259.0 258.9 258.9 258.9 258.9 258.9 258.9 258.9 258.9 258.9 258.9 258.9 258.9 258.7 258.7 258.7 258.7 258.7 258.7 258.7 258.9 258.9 258.9 259.0 259.2 259.2 259.2 259.2 259.2 259.0 258.9 258.9 258.9 258.7 258.7 258.6 258.6 258.4 258.4 258.4 258.3 258.3 258.2 258.2 258.6 258.6 258.6 258.5 258.9 258.9 258.9 258.9 258.9 258.9 258.9 258.9 258.9 258.9 258.9 258.9 258.7 258.7 258.4 258.3 258.3 258.4 258.2 258.2 258.2 258.2 258.2 258.1 258.1 257.8 257.5 257.0 256.7 256.4 256.0 255.8 255.8 255.8 255.6 255.6 255.6 255.6 255.6 255.8 255.8 256.2 256.3 256.2 256.2 256.3 256.6 256.9 257.1 257.4 257.9 258.4 258.8 258.9 258.9 259.2 259.2 259.2 259.2 259.5 259.5 259.6 259.6 259.8 259.8 259.9 260.1 260.1 259.9 259.9 259.9 259.8 259.8 259.6 259.3 259.2 258.9 258.4 257.9 257.3 256.7 256.0 255.6 255.1 254.8 254.4 254.3 254.0 253.7 253.6 253.4 253.1 253.0 252.7 252.8 252.8 252.3 251.9
258.6 258.6 258.6 258.6 258.5 258.7 258.9 258.9 258.9 258.9 258.9 258.9 258.8 259.2 259.2 259.2 259.2 259.2 259.2 259.2 259.2 259.2 259.2 259.5 259.5 259.5 259.5 259.5 259.5 259.5 259.5 259.5 259.5 259.5 259.5 259.5 259.3 259.2 259.2 259.2 259.2 259.2 259.2 259.2 259.2 259.2 259.0 259.0 259.0 258.9 258.9 258.9 258.9 258.9 258.7 258.7 258.7 258.7 258.7 258.7 258.7 258.7 258.6 258.6 258.6 258.6 258.6 258.6 258.6 258.7 258.9 258.9 258.9 259.2 259.2 259.2 259.0 259.0 258.7 258.7 258.7 258.7 258.4 258.4 258.4 258.4 258.1 258.1 258.1 258.1 258.1 258.3 258.3 258.6 258.6 258.5 258.7 258.9 258.9 258.8 258.8 258.8 258.8 258.8 258.8 258.9 258.9 258.9 258.9 258.7 258.5 258.2 258.2 258.3 258.1 257.8 257.8 257.8 257.8 257.8 257.8 257.6 257.5 257.4 257.0 256.7 256.4 256.1 255.8 255.8 255.8 255.5 255.3 255.4 255.4 255.5 255.9 255.9 256.0 255.8 255.6 255.6 255.9 256.4 256.7 257.2 257.5 257.9 258.6 258.7 258.9 258.9 259.2 259.2 259.2 259.2 259.3 259.3 259.3 259.3 259.6 259.8 259.8 259.9 259.9 259.8 259.8 259.8 259.6 259.6 259.5 259.2 259.0 258.7 258.1 257.5 256.9 256.0 255.6 255.3 254.7 254.4 254.1 254.1 253.8 253.5 253.6 253.2 253.1 253.1 253.0 252.7 252.8 252.0 251.1
258.6 258.6 258.6 258.8 258.8 258.9 258.9 258.9 258.9 258.9 258.9 258.8 259.1 259.2 259.2 259.2 259.2 259.2 259.2 259.2 259.2 259.2 259.2 259.5 259.5 259.5 259.5 259.5 259.5 259.5 259.5 259.5 259.5 259.5 259.5 259.3 259.2 259.2 259.2 259.2 259.2 259.2 259.2 259.2 259.2 259.0 258.9 258.9 258.9 258.9 258.9 258.9 258.7 258.7 258.6 258.6 258.6 258.6 258.6 258.6 258.6 258.4 258.4 258.4 258.4 258.4 258.4 258.4 258.4 258.4 258.7 258.7 258.7 259.0 259.0 259.0 258.7 258.5 258.4 258.2 258.2 258.2 258.1 258.1 258.1 258.1 258.0 258.0 257.9 257.9 257.9 258.3 258.3 258.6 258.5 258.7 258.9 258.9 258.8 259.1 259.1 259.1 259.1 259.1 259.1 258.8 258.9 258.9 258.9 258.9 258.8 258.4 258.3 258.1 257.8 257.5 257.5 257.3 257.3 257.3 257.3 257.2 257.2 257.2 257.1 256.7 256.4 256.3 256.0 255.8 255.6 255.4 255.1 254.9 254.9 255.2 255.3 255.5 255.5 255.3 255.3 255.4 255.7 256.4 256.7 257.1 257.4 257.9 258.4 258.6 258.7 258.9 259.0 259.0 259.0 259.0 259.0 259.0 259.0 259.2 259.3 259.6 259.8 259.8 259.8 259.8 259.6 259.6 259.5 259.5 259.3 259.2 258.9 258.4 257.8 257.2 256.6 255.8 255.3 255.0 254.6 254.3 253.8 253.8 253.5 253.2 253.0 252.9 252.9 253.1 253.1 253.0 252.8 251.8 250.9
258.6 258.6 258.6 258.9 258.9 258.9 258.9 258.9 258.9 258.9 258.8 259.1 259.2 259.2 259.2 259.2 259.2 259.2 259.2 259.2 259.2 259.1 259.1 259.5 259.5 259.5 259.5 259.5 259.5 259.5 259.5 259.5 259.5 259.5 259.3 259.2 259.2 259.2 259.2 259.2 259.2 259.2 259.2 259.2 259.0 258.9 258.9 258.9 258.9 258.9 258.9 258.7 258.6 258.6 258.6 258.4 258.4 258.4 258.4 258.4 258.4 258.3 258.3 258.3 258.3 258.1 258.1 258.1 258.1 258.1 258.2 258.2 258.4 258.5 258.5 258.6 258.2 257.9 257.7 257.6 257.6 257.6 257.8 257.8 257.8 257.8 257.8 257.8 258.0 258.0 258.0 258.3 258.2 258.6 258.7 258.9 258.9 258.8 259.1 259.2 259.2 259.2 259.2 259.2 259.2 259.1 258.8 258.8 258.8 258.8 258.9 258.8 258.3 257.8 257.5 257.2 257.0 256.9 256.7 256.7 256.7 256.9 256.9 256.9 256.9 256.8 256.4 256.5 256.2 255.8 255.5 255.0 254.4 254.3 254.1 254.4 254.3 254.8 255.0 255.1 255.5 255.9 256.2 256.6 256.9 257.2 257.5 257.9 258.2 258.4 258.6 258.9 258.9 258.9 258.9 258.9 258.9 258.9 258.9 259.0 259.2 259.5 259.6 259.6 259.6 259.6 259.5 259.5 259.5 259.3 259.2 259.0 258.7 258.1 257.5 256.9 256.3 255.7 255.2 254.9 254.4 254.1 253.7 253.5 253.2 252.9 252.7 252.8 252.8 253.1 253.1 253.1 252.8 252.1 251.2
258.6 258.6 258.6 258.9 258.9 258.9 258.9 258.9 258.9 258.8 259.1 259.2 259.2 259.2 259.2 259.2 259.2 259.1 259.1 259.1 259.1 259.4 259.4 259.5 259.5 259.5 259.5 259.5 259.5 259.5 259.5 259.5 259.5 259.5 259.2 259.2 259.2 259.2 259.2 259.2 259.2 259.2 259.2 259.2 258.9 258.9 258.9 258.9 258.9 258.9 258.7 258.6 258.6 258.6 258.4 258.2 258.3 258.3 258.3 258.3 258.3 258.1 258.1 258.1 258.1 258.0 257.8 257.8 257.8 257.8 257.8 257.8 257.9 257.9 257.9 257.7 257.4 257.3 257.0 257.0 257.0 257.2 257.3 257.5 257.4 257.4 257.6 257.6 258.0 257.9 257.9 258.3 258.4 258.5 258.9 258.8 258.9 259.1 259.2 259.2 259.2 259.2 259.2 259.2 259.2 259.2 259.1 259.1 259.1 259.1 258.8 258.9 258.3 257.6 257.1 256.9 256.6 256.4 256.0 256.2 256.2 256.3 256.6 256.6 256.5 256.5 256.5 256.3 255.9 255.8 255.4 254.8 253.6 253.4 253.3 253.6 253.7 254.5 255.0 255.6 256.0 256.3 256.6 257.1 257.2 257.5 257.7 257.9 258.3 258.2 258.4 258.7 258.7 258.7 258.7 258.7 258.7 258.7 258.9 258.9 259.0 259.3 259.5 259.5 259.5 259.5 259.5 259.5 259.3 259.0 259.0 258.7 258.2 257.6 257.2 256.6 256.0 255.3 255.0 254.7 254.3 254.0 253.7 253.4 252.9 252.8 252.8 252.8 252.8 252.9 252.9 252.9 252.6 252.2 251.3
258.4 258.6 258.6 258.9 258.9 258.9 258.9 258.9 258.8 259.1 259.2 259.2 259.2 259.2 259.1 259.1 259.1 259.4 259.4 259.4 259.4 259.5 259.5 259.5 259.5 259.5 259.5 259.5 259.5 259.5 259.5 259.5 259.5 259.3 259.2 259.2 259.2 259.2 259.2 259.2 259.2 259.2 259.2 259.0 258.9 258.9 258.9 258.9 258.9 258.7 258.6 258.6 258.4 258.4 258.2 258.3 258.1 258.1 258.1 258.1 258.1 258.0 258.0 257.8 257.8 257.8 257.7 257.4 257.5 257.5 257.5 257.5 257.3 257.3 257.1 257.0 256.7 256.5 256.4 256.4 256.5 256.6 256.8 257.1 257.4 257.3 257.6 257.6 257.9 258.1 258.1 258.2 258.6 258.8 258.9 259.1 259.1 259.2 259.2 259.2 259.2 259.2 259.2 259.2 259.2 259.2 259.2 259.2 259.2 259.2 259.1 258.9 258.3 257.7 257.0 256.5 256.0 255.9 255.8 255.9 255.9 256.1 256.2 256.2 256.4 256.4 256.3 256.0 255.9 255.7 254.9 254.3 253.0 252.7 252.9 253.1 253.8 254.7 255.4 256.0 256.3 256.6 257.1 257.5 257.7 257.9 257.6 257.9 258.3 258.3 258.3 258.4 258.4 258.4 258.4 258.6 258.6 258.6 258.9 258.9 258.9 259.2 259.3 259.5 259.5 259.3 259.3 259.3 259.0 258.7 258.7 258.4 257.8 257.2 256.7 256.1 255.6 255.2 254.9 254.6 254.3 254.0 253.5 253.2 252.7 252.8 252.8 252.6 252.6 252.6 252.4 252.5 252.3 252.1 251.3
258.3 258.6 258.6 258.9 258.9 258.9 258.9 258.9 259.1 259.2 259.2 259.2 259.1 259.1 259.4 259.4 259.4 259.5 259.5 259.5 259.5 259.5 259.5 259.5 259.5 259.5 259.5 259.5 259.5 259.5 259.3 259.3 259.3 259.2 259.2 259.2 259.2 259.2 259.2 259.2 259.2 259.2 259.2 258.9 258.9 258.9 258.9 258.9 258.9 258.6 258.6 258.6 258.2 258.2 258.3 258.1 257.9 258.0 258.0 258.0 257.8 257.8 257.8 257.7 257.7 257.4 257.5 257.4 257.1 257.1 257.2 257.0 256.9 256.7 256.3 256.3 256.0 255.7 255.9 255.9 256.2 256.4 256.7 257.0 257.2 257.3 257.6 257.6 257.9 258.2 258.2 258.4 258.5 258.9 258.8 259.2 259.2 259.2 259.1 259.1 259.1 259.1 259.1 259.1 259.1 259.2 259.2 259.2 259.2 259.2 259.2 258.9 258.3 257.7 257.1 256.4 256.0 255.8 255.8 255.8 255.8 255.9 256.1 256.1 256.3 256.3 256.0 255.6 255.5 255.2 254.2 253.6 252.8 252.4 252.8 253.2 254.3 255.2 255.9 256.3 256.8 257.1 257.5 257.8 258.0 258.0 257.8 258.0 258.1 258.1 258.1 258.1 258.3 258.3 258.3 258.4 258.6 258.6 258.9 258.9 258.9 259.2 259.2 259.3 259.3 259.2 259.0 259.0 258.7 258.4 258.2 257.9 257.3 256.7 256.1 255.6 255.3 255.1 254.7 254.4 254.1 253.8 253.4 253.1 253.0 252.8 252.6 252.3 252.3 252.1 251.8 251.6 251.6 251.3 251.1
258.1 258.4 258.6 258.9 258.9 258.9 258.9 258.8 259.2 259.2 259.2 259.1 259.4 259.4 259.5 259.5 259.5 259.5 259.5 259.5 259.5 259.5 259.5 259.5 259.5 259.5 259.5 259.5 259.5 259.5 259.2 259.2 259.2 259.2 259.2 259.2 259.2 259.2 259.2 259.2 259.2 259.0 259.0 258.9 258.9 258.9 258.9 258.9 258.7 258.6 258.6 258.4 258.3 258.3 258.1 257.9 258.0 257.8 257.8 257.8 257.7 257.7 257.7 257.5 257.5 257.3 257.4 257.2 257.1 257.1 256.8 256.7 256.5 256.2 256.1 256.1 255.8 255.5 255.6 255.6 255.9 256.2 256.8 257.0 257.0 257.3 257.6 257.8 258.1 258.4 258.4 258.5 258.8 258.8 259.1 259.2 259.2 259.1 259.4 259.4 259.4 259.4 259.4 259.4 259.4 259.2 259.1 259.1 259.2 259.2 259.2 258.9 258.3 257.6 257.0 256.4 256.1 255.8 255.8 255.8 255.8 255.9 256.0 256.0 256.0 256.0 255.5 255.4 255.1 254.5 253.8 253.2 252.6 252.5 252.7 253.5 254.7 255.9 256.3 256.8 257.2 257.6 257.8 258.0 258.0 258.0 258.0 258.0 258.0 258.0 258.0 257.8 258.1 258.1 258.1 258.3 258.4 258.6 258.9 258.9 258.9 259.2 259.2 259.2 259.2 259.0 258.7 258.7 258.2 257.9 257.6 257.3 256.7 256.3 255.6 255.3 255.1 254.7 254.4 254.3 254.0 253.7 253.2 253.1 252.9 252.6 252.3 251.8 251.8 251.5 251.2 250.9 250.9 250.8 250.8
257.9 258.2 258.6 258.9 258.9 258.9 258.9 259.1 259.2 259.2 259.2 259.4 259.5 259.5 259.5 259.5 259.5 259.5 259.5 259.5 259.5 259.5 259.7 259.7 259.7 259.5 259.5 259.5 259.5 259.3 259.2 259.2 259.2 259.2 259.2 259.2 259.2 259.2 259.2 259.0 259.0 258.9 258.9 258.9 258.9 258.9 258.9 258.7 258.6 258.6 258.4 258.3 258.1 258.1 258.0 258.0 257.8 257.7 257.7 257.7 257.5 257.5 257.5 257.4 257.4 257.4 257.2 257.0 256.9 256.9 256.7 256.5 256.4 256.1 256.1 255.9 255.6 255.5 255.5 255.7 255.8 256.1 256.5 257.0 257.2 257.5 257.8 258.2 258.5 258.6 258.7 258.7 258.9 259.1 259.2 259.2 259.1 259.4 259.5 259.5 259.5 259.5 259.5 259.5 259.5 259.4 259.4 259.4 259.2 259.2 259.2 258.9 258.3 257.8 257.2 256.6 256.3 256.0 255.8 255.8 255.6 255.5 255.5 255.5 255.3 255.3 255.1 254.9 254.6 254.1 253.5 252.9 252.3 252.5 253.1 254.1 255.3 256.4 256.6 257.1 257.4 257.6 258.0 258.0 258.0 258.0 258.0 257.8 257.8 257.8 257.8 257.7 257.8 257.7 258.0 258.1 258.2 258.6 258.9 258.9 258.9 259.2 259.2 259.2 259.0 258.7 258.4 258.2 257.8 257.5 257.0 256.7 256.3 255.8 255.3 255.1 254.5 254.5 254.1 254.2 253.8 253.5 253.1 252.9 252.6 252.3 251.8 251.2 251.0 250.9 250.6 250.3 250.3 250.3 250.3
257.9 258.3 258.6 258.9 258.9 258.9 258.8 259.2 259.2 259.2 259.1 259.5 259.5 259.5 259.5 259.5 259.5 259.5 259.5 259.5 259.5 259.7 259.8 259.8 259.8 259.7 259.5 259.5 259.3 259.2 259.2 259.2 259.2 259.2 259.2 259.2 259.2 259.2 259.0 258.9 258.9 258.9 258.9 258.9 258.9 258.9 258.7 258.6 258.6 258.4 258.3 258.1 258.0 258.0 257.8 257.8 257.7 257.5 257.5 257.5 257.4 257.4 257.1 257.2 257.2 257.2 257.0 257.1 256.7 256.7 256.5 256.4 256.2 256.1 256.1 255.8 255.5 255.5 255.7 255.8 255.8 256.1 256.6 257.2 257.5 257.8 257.9 258.2 258.5 258.7 259.1 259.1 259.1 259.2 259.1 259.4 259.4 259.5 259.5 259.5 259.5 259.5 259.5 259.5 259.5 259.5 259.5 259.5 259.2 259.2 259.2 258.9 258.2 258.0 257.6 256.9 256.6 256.3 256.0 255.8 255.5 255.0 254.9 254.5 254.3 254.4 254.4 254.3 253.9 253.7 253.2 252.6 252.2 252.5 253.4 254.3 255.5 256.2 256.7 257.0 257.3 257.9 258.0 258.0 258.0 258.0 258.0 257.7 257.5 257.5 257.5 257.5 257.7 257.7 257.8 257.9 258.3 258.6 258.9 258.9 258.9 259.0 259.0 259.0 258.7 258.4 258.1 257.8 257.3 257.0 256.6 256.3 255.8 255.4 255.1 254.5 254.1 253.9 253.8 253.6 253.5 253.2 252.9 252.6 252.1 251.8 251.2 250.6 250.3 250.3 250.0 249.6 249.9 249.9 249.9
257.9 258.3 258.6 258.9 258.9 258.9 259.1 259.2 259.2 259.2 259.4 259.5 259.5 259.5 259.7 259.7 259.7 259.7 259.7 259.7 259.7 259.8 259.8 259.8 259.8 259.8 259.5 259.5 259.2 259.2 259.2 259.2 259.2 259.2 259.2 259.2 259.2 259.0 258.9 258.9 258.9 258.9 258.9 258.9 258.7 258.7 258.6 258.4 258.4 258.3 258.1 258.0 257.8 257.8 257.7 257.7 257.5 257.4 257.4 257.4 257.2 257.2 257.1 257.1 257.1 257.1 257.1 256.9 256.7 256.7 256.4 256.4 256.1 256.1 256.2 255.9 255.5 255.7 255.8 255.8 256.2 256.5 256.9 257.3 257.8 258.1 258.1 258.4 258.7 259.1 259.2 259.2 259.2 259.4 259.4 259.5 259.5 259.5 259.5 259.5 259.5 259.5 259.5 259.5 259.5 259.5 259.5 259.5 259.2 259.2 259.2 258.9 258.5 258.2 257.6 257.2 256.9 256.4 256.1 256.0 255.5 254.9 254.2 253.6 253.6 253.4 253.6 253.4 253.3 253.0 252.7 252.3 251.9 252.4 253.3 254.3 255.5 256.1 256.7 257.0 257.3 257.8 258.0 258.0 258.0 258.0 257.8 257.5 257.2 257.2 257.2 257.4 257.5 257.5 257.7 258.0 258.3 258.4 258.7 258.7 258.7 258.7 258.7 258.7 258.4 258.1 257.8 257.5 256.9 256.6 256.0 255.8 255.3 254.9 254.5 254.1 253.8 253.5 253.5 253.2 253.2 252.9 252.8 252.5 251.9 251.2 250.6 249.9 249.6 249.6 249.5 249.2 249.4 249.2 249.2
