ncols 360
nrows 47
xllcorner -180
yllcorner -50
cellsize 1
NODATA_value -9999
-5527 -5751 -5773 -5759 -5839 -5146 -5255 -5248 -4522 -4764 -5403 -5213 -5453 -5215 -4439 -4688 -5122 -5053 -4991 -4989 -5005 -5044 -5036 -4923 -4672 -4968 -5068 -4916 -4810 -4801 -4706 -4691 -4652 -4645 -4617 -4574 -4504 -4499 -4488 -4502 -4500 -4500 -4501 -4503 -4519 -4528 -4530 -4541 -4583 -4610 -4611 -4595 -4580 -4560 -4556 -4550 -4497 -4416 -4367 -4305 -4329 -4289 -4211 -4237 -4248 -4233 -4194 -4115 -4034 -4004 -3902 -3806 -3729 -3627 -3462 -3316 -3277 -3264 -3400 -3481 -3569 -3584 -3625 -3582 -3574 -3615 -3620 -3637 -3659 -3455 -3426 -3463 -3406 -3338 -3385 -3275 -3051 -3264 -2453 161 2069 1246 285 181 122 92 91 87 64 104 89 89 71 56 30 30 30 30 30 41 31 39 59 62 67 83 92 86 79 75 71 94 149 154 33 35 72 45 255 166 85 0 -1355 -2642 -2850 -3603 -3394 -3938 -4432 -4715 -4942 -5063 -5223 -5372 -5487 -5476 -5477 -5424 -5099 -4982 -4966 -4763 -4604 -4411 -4026 -3788 -3522 -3203 -3199 -3716 -3983 -4023 -4136 -4317 -4610 -4704 -4762 -4721 -4506 -4409 -4377 -4352 -4639 -4675 -4716 -4595 -4376 -4171 -3351 -1294 -63 188 237 499 542 586 432 329 381 413 409 449 507 576 616 568 759 1017 1924 1578 1391 1231 1230 1191 1348 1445 1289 1098 615 123 -538 -2301 -3363 -3755 -4207 -4554 -4722 -4819 -4791 -4979 -5012 -5000 -4484 -3368 -2675 -2152 -3496 -4137 -4038 -3757 -3665 -4198 -4175 -4098 -3973 -3846 -3652 -3292 -3466 -3821 -3982 -4008 -3700 -3427 -4873 -4991 -5001 -4990 -4998 -4984 -4979 -5026 -4223 -4343 -4782 -4769 -4704 -4626 -4041 -3364 -4090 -4607 -4763 -4644 -4623 -4575 -4820 -4630 -4768 -4710 -1158 -360 479 158 24 1 -13 -20 -26 -38 -20 -9 -4 -6 52 101 0 -142 -1213 292 -302 713 -199 -3431 -4872 -4745 0 -1352 -655 0 0 -993 -671 113 298 517 1626 1481 1256 491 395 193 0 0 -1115 -2145 -1950 -1333 -1759 -2217 -2279 -1419 -1111 -2137 -2285 -2092 -1811 -1791 -1887 -1995 -2476 -2481 -3136 -3364 -3566 -3757 -3783 -3598 -3569 -3588 -3862 -3991 -4088 -4311 -4813 -4951 -4834 -4984 -5229 -5432
-5636 -5795 -5698 -5634 -5586 -4806 -5523 -4819 -4939 -5420 -5298 -5436 -5497 -5086 -3902 -3343 -4445 -4808 -4877 -4969 -4934 -5053 -5044 -5044 -4939 -4958 -5116 -5000 -5004 -4908 -4619 -4825 -4941 -4598 -4576 -4550 -4503 -4505 -4479 -4422 -4436 -4468 -4510 -4509 -4523 -4541 -4576 -4581 -4610 -4610 -4591 -4550 -4533 -4500 -4363 -4440 -4390 -4359 -4348 -4221 -4243 -4319 -4256 -4246 -4237 -4224 -4174 -4067 -3973 -3755 -3599 -3525 -3402 -3257 -3242 -3173 -3293 -3427 -3463 -3603 -3674 -3695 -3759 -3599 -3677 -3769 -3812 -3812 -3880 -3816 -3738 -3698 -3681 -3603 -3596 -3580 -3616 -3752 -1937 550 2062 962 276 126 102 91 91 85 49 73 66 61 61 41 30 30 30 30 30 30 47 61 80 83 132 138 131 141 203 214 115 184 204 180 99 97 86 123 353 309 264 84 -49 -1053 -1364 -3361 -3837 -4241 -4511 -4791 -4984 -5226 -5384 -5510 -5593 -5599 -5595 -5490 -5138 -4999 -4950 -4669 -4567 -4088 -3966 -3682 -3488 -3034 -3141 -3509 -3838 -3993 -4169 -4370 -4387 -4603 -4752 -4722 -4725 -4506 -4632 -4773 -5023 -4687 -4622 -4843 -4593 -4238 -3875 -3244 -1552 0 205 336 423 488 574 439 439 447 428 446 499 551 604 593 629 811 1184 1102 1146 1127 1212 1179 1398 1502 1343 928 558 0 -1219 -2459 -3537 -4101 -4423 -4617 -4685 -4791 -4873 -4948 -5004 -4897 -4359 -2929 -593 -24 -1037 -3434 -3947 -4002 -3650 -3698 -4062 -4013 -4028 -3959 -3808 -3440 -3067 -3516 -3909 -3737 -2037 -2872 -4904 -5005 -5005 -4997 -4996 -4959 -4963 -4985 -4129 -4657 -4925 -4901 -4936 -4998 -4288 -3729 -4651 -4749 -4954 -4629 -4818 -4822 -4964 -4521 -4676 -4981 -4239 -1005 -528 514 192 15 -57 -92 -91 -64 -44 -48 -43 -40 -11 -10 -33 -804 -1625 0 -623 -555 43 -3109 -4882 -4312 -3597 -3480 -3358 -3234 -4122 -2119 -1165 -1482 -1108 253 399 871 1124 1291 1130 852 489 234 86 0 -1659 -1630 -1521 -1525 -2107 -862 0 -2665 -2172 -2001 -1641 -1707 -1762 -1584 -2212 -2311 -2728 -2520 -2692 -3369 -3299 -3312 -3350 -3386 -3587 -3861 -4097 -4583 -5078 -4782 -4785 -5339 -5491 -5573
-5514 -5474 -5597 -5799 -5565 -5598 -5234 -5682 -5586 -4858 -5256 -5537 -5407 -4585 -3716 -3480 -4314 -4403 -4915 -4950 -4942 -5061 -5081 -5058 -4719 -5025 -5017 -4715 -5021 -4994 -4906 -4950 -4679 -4486 -4530 -4509 -4500 -4520 -4452 -4272 -4274 -4305 -4450 -4491 -4514 -4575 -4608 -4604 -4612 -4614 -4605 -4595 -4574 -4481 -4367 -4453 -4396 -4355 -4353 -4310 -4196 -4314 -4269 -4214 -4203 -4213 -4140 -4019 -3858 -3554 -3444 -3339 -3251 -3028 -3326 -3499 -3533 -3594 -3653 -3771 -3804 -3815 -3839 -3839 -3829 -3886 -3974 -4012 -4024 -3978 -3902 -3905 -3926 -3857 -3931 -3918 -3701 -4064 -2206 134 1858 1320 1239 232 127 123 126 110 97 92 88 75 61 48 31 31 31 30 30 30 35 75 93 111 149 167 255 252 318 229 135 142 239 241 167 160 132 144 409 393 252 143 112 139 31 -2806 -4397 -4596 -4815 -5043 -5189 -5429 -5533 -5589 -5599 -5599 -5601 -5369 -4996 -4999 -4780 -4600 -4414 -4018 -3879 -3728 -3601 -3215 -2881 -3390 -3671 -3788 -4148 -4421 -4730 -4962 -5039 -4837 -4520 -4089 -4498 -5052 -5133 -5048 -5020 -4848 -4640 -4284 -3883 -3294 -2322 -596 91 287 512 689 609 625 580 562 593 599 632 610 665 632 679 737 1016 966 1277 1118 1191 1297 1278 1158 1284 915 241 0 -1743 -2816 -3589 -4064 -4339 -4498 -4611 -4669 -4805 -4532 -4882 -4849 -4351 -1906 -3160 0 -605 -1620 -3467 -4039 -4015 -3797 -4060 -4076 -4002 -3896 -3813 -3440 -3212 -3501 -3776 -2165 -1044 -3455 -4963 -5023 -5013 -5031 -5048 -5027 -5027 -5017 -4857 -5010 -5011 -5013 -5021 -5020 -4528 -3588 -4713 -4991 -4904 -4946 -5028 -4833 -4971 -4870 -5123 -5104 -5495 -3327 -1134 -1571 71 15 -66 -132 -142 -91 -48 -54 -48 -53 -31 -38 -71 -312 -509 3 -722 -1690 -533 -1450 -2283 -3529 -3661 -2872 -4251 -4595 -4558 -5405 -395 -2227 -565 -43 -53 -32 0 9 346 1161 1985 2218 1510 557 -571 -915 -605 0 0 0 -3626 -3728 -1174 -2126 -2007 -2162 -1946 -1017 -1966 -2295 -3071 -3263 -2705 -2712 -2870 -3037 -3024 -3149 -3538 -3991 -4632 -5056 0 -4986 -4809 -5329 -5484 -5203
-5188 -5525 -5599 -5681 -5730 -5465 -5187 -5550 -5466 -5178 -5484 -5511 -5139 -4591 -3792 -3935 -4807 -4354 -4640 -4903 -5095 -5415 -5193 -5177 -5179 -5056 -5054 -4551 -4983 -5026 -5008 -5011 -4974 -4868 -4688 -4547 -4478 -4312 -4358 -4191 -4115 -4231 -4292 -4380 -4518 -4587 -4602 -4604 -4595 -4626 -4623 -4606 -4527 -4394 -4433 -4527 -4531 -4384 -4357 -4355 -4257 -4286 -4251 -4204 -4144 -4142 -4054 -3923 -3644 -3518 -3392 -3198 -3090 -3119 -3431 -3608 -3763 -3941 -3993 -3912 -3910 -3824 -3788 -3885 -3881 -3953 -3993 -4045 -4072 -4074 -4044 -4045 -4019 -4005 -4055 -4050 -4022 -4262 -3390 0 1254 2858 1942 639 279 219 200 180 165 126 101 88 88 82 61 61 61 48 40 39 69 120 151 188 171 213 305 272 334 288 263 226 236 379 298 227 183 193 408 482 332 328 261 468 161 -1780 -4111 -4705 -5021 -5256 -5421 -5541 -5595 -5600 -5601 -5611 -5643 -5422 -5032 -5002 -4947 -4703 -4549 -4211 -3975 -3713 -3544 -3179 -3117 -3486 -3853 -4088 -4450 -4472 -4592 -4865 -4684 -4383 -4242 -3919 -4131 -5321 -5530 -5009 -5162 -4914 -4667 -4355 -4024 -3629 -2621 -644 39 419 654 879 688 787 731 714 679 717 786 739 764 751 674 671 1049 1086 1136 1218 1161 1364 1175 969 1093 565 132 0 -1703 -2886 -3591 -4018 -4257 -4400 -4474 -4594 -4531 -3574 -4618 -4669 -3513 -3259 -3546 -3282 -2216 -1595 -2097 -3820 -4001 -4060 -4093 -4065 -4044 -3860 -3836 -3351 -3257 -3681 -3411 -788 -786 -3907 -5024 -5022 -5024 -5045 -5080 -5023 -5017 -5026 -5039 -5031 -5022 -5026 -5027 -5084 -4215 -3241 -4431 -5028 -4961 -4994 -5076 -5011 -4976 -5064 -5175 -4934 -5094 -5598 -3296 -1801 -1390 -202 320 286 39 -38 0 -9 -39 -38 -46 -39 -258 -380 -231 -910 -1435 -2007 -1931 -3040 -3052 -3467 -4281 -4585 -4496 -3227 -5044 -3453 -1089 -1299 0 -34 -45 -41 0 0 0 22 578 1183 1285 1728 844 40 -2433 -2486 -2858 -5433 -5203 -5821 -3961 0 -1527 -2842 -3014 -2519 -2098 -2390 -3224 -3581 -3682 -3649 -3558 -3402 -3545 -3742 -4189 -4745 -5233 -5117 -5042 -5035 -4519 -4522 -5357 -5374
-4985 -5378 -5501 -5514 -5637 -5374 -5164 -5334 -4984 -4806 -5137 -5110 -4649 -4307 -3930 -4166 -4081 -4001 -4305 -4626 -5292 -5467 -5205 -5113 -5073 -5057 -5038 -4875 -4865 -5128 -5117 -5282 -5230 -5074 -4858 -4614 -4486 -4247 -4032 -3306 -3872 -4160 -4252 -4357 -4497 -4574 -4607 -4602 -4616 -4619 -4604 -4601 -4570 -4493 -4491 -4517 -4560 -4484 -4408 -4351 -4329 -4296 -4284 -4254 -4093 -4058 -3863 -3735 -3561 -3481 -3324 -3160 -3065 -3304 -3498 -3699 -3825 -4078 -4117 -4055 -3987 -3972 -3963 -3942 -3961 -4013 -4073 -4107 -4108 -4082 -4077 -4153 -4152 -4187 -4204 -4235 -4203 -4142 -4583 -563 455 2942 2327 561 378 290 243 180 175 161 163 135 84 74 61 61 66 64 97 91 152 112 266 356 297 300 296 294 310 331 226 266 223 296 219 257 211 210 313 582 525 479 559 529 180 0 -4214 -4746 -5060 -5368 -5472 -5564 -5599 -5602 -5607 -5612 -5603 -5340 -4948 -4870 -4666 -4266 -3876 -3714 -3800 -3461 -3210 -3178 -3414 -3608 -3584 -3942 -4326 -4575 -4671 -4677 -4659 -4440 -4214 -4684 -4861 -5273 -5714 -5390 -5228 -5008 -4762 -4496 -4273 -4052 -3239 -1466 -355 405 700 1039 745 791 939 916 856 846 889 896 942 879 803 734 1151 1428 1096 1223 1233 1370 1209 1245 1024 486 165 -82 -1604 -2933 -3617 -3981 -4158 -4292 -4365 -4383 -4392 -3528 -3968 -4469 -3957 -3843 -3865 -3629 -2550 -2652 -1875 -2331 -3515 -3706 -3751 -4014 -4062 -3879 -3682 -3248 -3091 -3852 -2788 -1036 -2004 -4348 -4998 -5023 -5037 -5036 -5038 -5041 -5046 -5009 -5000 -5002 -4834 -4910 -5027 -5157 -4434 -3938 -5177 -4965 -4992 -5035 -5026 -5011 -4976 -5046 -5077 -5116 -5413 -5443 -5635 -4598 -3397 -2089 -1204 75 187 305 294 180 289 116 -92 -693 -769 -650 -1440 -3508 -3218 -2439 -2466 -3346 -3798 -3673 -2793 -3146 -3048 -3139 -1915 -458 -720 -72 -37 -60 -48 -28 0 0 0 5 60 31 40 537 1356 -692 -3496 -5274 -4769 -4717 -4275 -4563 -4942 -2893 -828 -493 -940 -2292 0 -1942 -2369 -3428 -3598 -3619 -3775 -3980 -4179 -4644 -4943 -5014 -5130 -5043 -5061 -5024 -4864 -4423 -4065 -5065
-5015 -5235 -5246 -5251 -5276 -4996 -4696 -3887 -4428 -4699 -4522 -4543 -4375 -3976 -3759 -4045 -3634 -3575 -3945 -4177 -5011 -5245 -4933 -5128 -5129 -5024 -5051 -4934 -5012 -4891 -5016 -5130 -5308 -5207 -5014 -4720 -4574 -4291 -3938 -2425 -3074 -4056 -4181 -4275 -4486 -4546 -4581 -4600 -4604 -4610 -4609 -4593 -4556 -4479 -4418 -4373 -4307 -4247 -4210 -4216 -4213 -4204 -4258 -4231 -4077 -4034 -3746 -3576 -3471 -3340 -3197 -3012 -3148 -3374 -3579 -3741 -3895 -4195 -4175 -4241 -4175 -4048 -4047 -3667 -3922 -4024 -4096 -4112 -4111 -4166 -4184 -4234 -4252 -4233 -4308 -4387 -4360 -4345 -4969 -2227 0 2008 3603 1476 498 229 276 201 214 211 182 149 115 110 81 88 86 106 165 157 157 155 215 428 441 395 301 293 368 336 197 246 343 433 384 306 378 328 469 431 377 411 562 649 192 0 -4024 -4880 -4745 -5314 -5505 -5575 -5604 -5602 -5604 -5588 -5597 -5598 -5154 -4877 -4554 -4179 -3903 -3725 -3537 -2812 -2479 -2850 -3073 -3559 -3637 -4106 -4328 -4538 -4747 -4715 -4569 -4629 -4797 -5154 -5079 -5306 -5592 -5448 -5289 -5148 -4890 -4694 -4495 -4276 -3683 -2382 -1224 108 620 1028 850 673 1110 1044 981 840 893 954 1037 881 792 1292 1095 1112 1049 1574 1227 1396 1326 1275 440 373 301 -299 -2082 -3067 -3608 -3923 -4055 -4190 -3508 -3468 -4466 -4569 -4082 -3737 -4261 -3726 -3990 -3682 -3392 -3474 -2675 -1315 -1627 -2838 -3310 -3874 -3995 -3881 -3724 -3300 -3563 -3786 -2188 -2025 -3112 -4672 -5007 -5018 -5036 -5041 -5019 -5045 -5052 -4972 -4998 -5003 -4582 -5071 -5156 -5000 -3945 -4298 -5199 -4902 -5085 -5089 -4975 -5087 -5009 -4983 -5111 -5357 -5094 -5442 -5411 -5650 -5997 -4658 -2820 -2706 -2470 -1797 -793 -429 -383 0 0 -283 0 0 0 -877 0 -1317 -1185 -1546 -1604 0 0 -1291 -1680 -1246 -809 -825 -339 -167 -132 -75 -52 -32 -20 -18 0 20 9 0 -50 -264 468 1136 -126 -544 -610 -1870 -3376 -3932 -2741 -3706 -2941 -812 -1128 -707 -922 -2877 -2408 -2851 -3273 -3971 -4402 -3997 -4192 -4528 -4895 -4987 -4978 -5015 -4965 -5010 -4909 -4555 -4405 -4335
-4252 -4715 -4887 -4849 -4655 -4168 -4108 -3894 -3335 -4211 -4606 -4284 -3936 -3812 -3438 -4012 -3412 -2999 -3952 -4298 -4919 -4941 -4721 -4927 -5244 -5432 -5118 -4652 -4888 -4441 -4589 -4728 -4872 -4867 -5043 -4846 -4603 -4435 -4255 -3367 -2523 -3063 -4104 -4216 -4423 -4460 -4507 -4522 -4505 -4483 -4449 -4366 -4244 -4144 -4019 -4002 -3977 -3956 -3960 -4009 -4039 -4079 -4160 -4099 -3949 -3757 -3600 -3452 -3269 -2996 -3011 -3211 -3386 -3505 -3663 -3798 -4154 -4350 -4253 -4237 -4231 -4149 -4016 -3850 -3833 -3766 -3934 -4134 -4072 -4116 -4230 -4442 -4561 -4425 -4425 -4484 -4465 -4448 -4617 -4655 -619 505 4041 2787 1246 352 343 291 225 201 179 158 138 134 145 130 167 200 238 243 263 243 279 288 399 434 354 291 385 218 217 231 343 488 475 417 500 446 477 436 413 333 228 247 0 -3002 -4600 -4944 -5001 -4758 -5477 -5573 -5601 -5609 -5609 -5575 -5483 -5553 -5263 -4978 -4615 -4486 -4181 -3973 -3869 -3216 -2466 -2845 -3380 -3447 -3551 -3780 -4138 -4324 -4305 -4445 -4243 -4881 -5114 -5259 -5585 -5667 -5627 -5487 -5358 -5266 -5071 -4847 -4682 -4414 -3774 -2364 -1170 82 437 1027 1025 942 1059 1157 1035 999 950 1020 954 867 1128 1316 1008 1190 1553 1462 1429 1369 1667 943 759 493 412 0 -2379 -2866 -3252 -3670 -3868 -4023 -3385 -3744 -4405 -4472 -2832 -2293 -4046 -4349 -3979 -3768 -3457 -3857 -3149 -1534 -843 -1554 -2515 -3543 -3846 -3839 -3441 -3505 -3683 -3685 -2503 -2674 -3651 -4759 -5027 -5025 -5022 -5016 -5018 -5045 -5059 -4823 -4942 -4907 -4714 -5163 -5006 -4907 -3980 -4570 -5276 -4991 -5230 -5144 -5415 -4829 -5040 -5138 -5232 -5422 -5309 -5501 -5476 -5513 -5223 -5456 -5770 -4542 -3097 -2424 -2336 -2841 -2787 -2751 -3606 -3263 -2985 -2625 -1858 0 -1477 -2378 -3216 -2622 0 -915 -1578 -1579 -967 -675 -426 -198 -168 -137 -103 -90 -64 -51 -50 -48 -35 -6 -0 -8 -158 -1409 -1366 286 337 36 -181 -1230 -1273 -2033 -3070 -3565 -3740 -3814 -3165 -1384 -263 -1225 -3904 -3679 -3490 -2253 -2734 -2973 -3816 -4358 -4380 -4766 -5027 -5044 -5021 -5042 -5041 -4816 -4618 -4340
-3202 -3864 -4069 -3839 -3699 -4113 -4287 -4155 -4425 -4853 -4799 -4298 -4121 -4201 -4153 -4171 -3425 -2724 -2987 -4181 -4941 -5141 -5098 -5112 -5118 -5040 -5112 -4636 -4913 -4620 -4516 -4759 -4698 -4729 -4787 -4828 -4617 -4547 -4445 -4236 -3784 -2750 -3823 -4118 -4142 -4150 -4165 -4148 -4239 -4261 -4200 -4020 -3991 -3999 -3964 -3912 -3914 -3891 -3894 -3897 -3892 -3928 -3945 -3857 -3705 -3562 -3478 -3356 -3211 -3007 -3139 -3357 -3547 -3666 -3810 -3972 -4257 -4341 -4302 -4223 -4274 -4153 -3974 -3815 -3805 -3702 -3750 -3981 -3977 -4064 -4224 -4375 -4424 -4405 -4406 -4499 -4497 -4503 -4461 -4943 -3308 -426 2514 4150 1795 778 348 331 302 286 214 180 155 156 185 347 335 287 299 300 315 281 343 387 328 433 308 311 324 215 279 314 405 625 650 528 505 448 663 615 416 352 173 -159 -2555 -4243 -4745 -4983 -5191 -5240 -5463 -5553 -5591 -5601 -5570 -5559 -5375 -5633 -5766 -5438 -4994 -4655 -4250 -3997 -3815 -3356 -2837 -2924 -3133 -3518 -3784 -4049 -4278 -4226 -4210 -4715 -4936 -5163 -5000 -5363 -5552 -5617 -5588 -5458 -5422 -5366 -5200 -4976 -4777 -4448 -4008 -2572 -1577 -148 923 1417 1214 1173 1186 1252 1133 1046 1037 1123 1140 1355 1203 1223 1107 1216 1253 1271 1279 1412 828 936 860 633 424 228 -566 -2363 -2865 -3365 -3611 -3792 -3805 -3842 -4083 -3605 -2476 -3372 -4453 -4604 -4231 -3973 -3476 -4050 -3651 -2625 -240 -32 -989 -3408 -3793 -3709 -3210 -3447 -3738 -3756 -3354 -2960 -4127 -4959 -5205 -5014 -5042 -5086 -5091 -5095 -5046 -5038 -5014 -4994 -4745 -4960 -5000 -5031 -3978 -4635 -5276 -5189 -5134 -5408 -5234 -5036 -5100 -5176 -5202 -4522 -4898 -5279 -5085 -5430 -4526 -4062 -5725 -6063 -5864 -5351 -5417 -4912 -4049 -3240 -3235 -3683 -3819 -3934 -3583 -2515 -1690 -1044 -1513 -989 -1434 -1274 -463 -85 -46 -73 -90 -78 -68 -75 -75 -63 -47 -50 -50 -50 -43 -16 -6 -32 -768 -1227 -1859 -1991 -1147 -539 -258 -768 -1622 -2715 -2899 -3008 -3272 -2325 -2809 -3124 -3663 -1543 -2327 -3370 -3515 -1796 -1376 -2883 -3459 -3742 -4079 -4002 -4224 -4713 -4773 -4664 -4829 -4633 -4549 -3383
-1995 -2689 -3558 -3458 -4130 -4455 -4588 -4650 -4711 -4822 -4970 -4986 -5148 -5213 -4154 -4054 -3666 -2638 -2926 -4262 -5011 -5053 -5120 -5144 -5145 -5170 -5076 -4968 -4606 -4728 -4717 -4950 -4814 -4698 -4651 -4579 -4519 -4554 -4483 -4389 -4050 -3948 -4061 -4128 -4129 -4113 -4090 -4080 -4143 -4131 -4064 -4018 -4002 -3981 -3909 -3888 -3837 -3868 -3839 -3816 -3781 -3749 -3746 -3652 -3569 -3446 -3433 -3297 -3088 -2995 -3256 -3436 -3595 -3677 -3855 -4051 -4229 -4279 -4163 -4206 -4209 -4049 -3932 -3783 -3728 -3566 -3740 -3956 -4010 -4020 -4089 -4257 -4287 -4339 -4394 -4480 -4500 -4516 -4511 -4613 -5135 -2038 355 4055 3263 1105 1071 509 383 358 304 249 190 183 166 304 359 369 310 336 424 296 328 454 378 326 261 305 289 214 288 319 518 743 699 477 476 738 798 519 335 212 0 -2534 -3842 -4417 -4653 -4849 -5157 -5246 -5421 -5502 -5579 -5599 -5600 -5611 -5612 -5580 -5427 -5058 -4813 -4603 -4416 -4010 -3631 -3242 -3110 -3266 -3612 -3723 -4021 -4396 -4457 -4492 -4458 -4707 -5151 -5273 -5007 -4868 -5543 -5529 -5499 -5478 -5441 -5340 -5267 -5028 -4772 -4375 -3919 -3276 -1996 -490 1254 1563 1475 1189 1265 1323 1188 1100 1163 1283 1344 1409 1352 1211 1148 1158 1269 1367 1103 1202 722 721 596 425 309 363 0 -1930 -2836 -2168 -3321 -3473 -3684 -3366 -3412 -2425 -3497 -4338 -4583 -4689 -4587 -4065 -4289 -4227 -4035 -3388 -1548 -120 -1724 -3508 -3757 -3438 -3404 -3466 -3566 -3816 -3172 -3606 -4595 -4971 -5011 -5044 -5231 -5177 -5103 -5082 -5026 -5003 -5009 -4671 -5014 -5244 -5081 -4921 -2818 -4495 -5070 -4868 -5582 -5382 -5190 -5094 -4339 -4723 -4874 -4448 -4765 -4775 -4836 -4673 -3967 -4786 -5395 -4977 -5088 -4650 -4606 -4180 -4044 -4717 -4767 -5689 -5628 -5746 -5404 -4784 -3068 -2454 -1513 -811 -377 -166 -87 -91 -68 -50 0 -12 0 -16 -30 -26 -18 -48 -57 -60 -55 -25 26 -12 -1517 -1780 -2188 -2779 -2722 -2601 -2644 -2227 -1700 -777 -1533 -2617 -2619 -2174 -3172 -2675 -2693 -4691 -5047 -5099 -4882 -4842 -1441 -2528 -2885 -2718 -2569 -3320 -3383 -2541 -3029 -2045 -3177 -3486 -2023 -2683
-2077 -2557 -2575 -3166 -3523 -3434 -4188 -4628 -4630 -4646 -4993 -5066 -5308 -5493 -5342 -4791 -3721 -2703 -2791 -4500 -5034 -5048 -5096 -5095 -5056 -5094 -5053 -5027 -4770 -4552 -4733 -4792 -4891 -4765 -4629 -4618 -4745 -4709 -4458 -4245 -4090 -4110 -4106 -4056 -4133 -4142 -4137 -4140 -4110 -4074 -4017 -3986 -4001 -3974 -3968 -3937 -3892 -3817 -3778 -3731 -3684 -3620 -3552 -3480 -3471 -3274 -3353 -3217 -2999 -3059 -3358 -3470 -3604 -3733 -3826 -4061 -4253 -4247 -4146 -4159 -4094 -4009 -3935 -3815 -3606 -3606 -3725 -3918 -3993 -4054 -4046 -4054 -4089 -4216 -4394 -4519 -4654 -4760 -4736 -4590 -4782 -4182 0 1878 4238 2896 1890 2219 1256 453 305 285 260 212 184 179 215 254 351 364 364 321 313 370 407 311 261 299 309 252 390 331 436 705 728 737 516 779 739 389 235 45 -1801 -3742 -4253 -4340 -4211 -4356 -4649 -5255 -5405 -5469 -5587 -5602 -5581 -5476 -5498 -5434 -5364 -5050 -4767 -4612 -4091 -3744 -3113 -2928 -3011 -3463 -3570 -3681 -4096 -4340 -4369 -3937 -3934 -4591 -5100 -5458 -5525 -5704 -5500 -5401 -5421 -5442 -5439 -5412 -5287 -5015 -4695 -4240 -3778 -3170 -1827 92 1389 1670 1694 1352 1348 1255 1182 1122 1187 1334 1237 1273 1335 1282 1209 1181 1284 987 1178 1160 611 980 643 465 432 341 0 -2293 0 -2445 -2497 -2696 -2849 -2359 -500 0 -3298 -4260 -4617 -4616 -4624 -4328 -4340 -4260 -4141 -3812 -2248 -1671 -3408 -3821 -3659 -3207 -2916 -3390 -3745 -3793 -3649 -4203 -4815 -4990 -4993 -5084 -5175 -5120 -5086 -5007 -4962 -4987 -4817 -4353 -5016 -5090 -4800 -4893 -2838 -4814 -5013 -5319 -5673 -5501 -5048 -4026 -4176 -4687 -5014 -5427 -5333 -4210 -4454 -4924 -5293 -5215 -5001 -4615 -4444 -4220 -3978 -3859 -4189 -4912 -4895 -5161 -5421 -5524 -5375 -4446 -2858 -2666 -1174 -250 -109 -61 -60 -91 -90 -49 -3 3 20 108 22 20 2 -49 -61 -70 -59 -19 53 -81 -2781 -3009 -3367 -3924 -4069 -4251 -4426 -4457 -4474 -3908 -3549 -2442 -2047 -2385 -2739 -3220 -2017 -3606 -4269 -4470 -4261 -5374 -2986 -2177 -2877 -3072 -2994 -2879 -2055 -3150 -3005 -2908 -2739 -2789 -2876 -2290
-2220 -2235 -3019 -3096 -4090 -3774 -4036 -2192 -3537 -4428 -4718 -5090 -5210 -5390 -5373 -5391 -4278 -3411 -3364 -4830 -5025 -4990 -5045 -5045 -5032 -5029 -5033 -4920 -4703 -4178 -3992 -4482 -4516 -4587 -4486 -4253 -4125 -4273 -4089 -4009 -4006 -4043 -4053 -4059 -4081 -4098 -4085 -4097 -4065 -3950 -3793 -3995 -3981 -3940 -3906 -3816 -3778 -3677 -3656 -3560 -3617 -3555 -3488 -3419 -3292 -3257 -3073 -3029 -3065 -3201 -3439 -3526 -3616 -3743 -3835 -3986 -4182 -4203 -4117 -4031 -3988 -3894 -3827 -3747 -3756 -3729 -3795 -3808 -3891 -3893 -3990 -4136 -4166 -4319 -4551 -4711 -4921 -4898 -4828 -4647 -4516 -4779 -3163 -23 3374 4014 3424 3978 3703 2296 970 464 230 213 213 214 228 237 251 384 551 445 372 339 414 392 344 386 298 312 560 486 643 686 732 616 493 755 704 510 244 -1026 -3456 -4165 -4424 -4549 -4585 -4613 -4968 -5203 -5084 -5246 -5541 -5584 -5566 -5489 -5498 -5356 -5010 -4935 -4656 -4431 -4002 -3765 -3383 -2978 -3177 -3410 -3616 -3772 -3597 -3951 -3979 -3668 -3928 -4498 -4837 -5420 -5354 -5488 -5528 -5385 -5401 -5420 -5422 -5416 -5263 -4946 -4640 -4246 -3749 -3265 -968 832 1490 1654 1612 1398 1442 1271 1211 1112 1081 1122 1139 1218 1224 1164 1242 1345 1274 946 1095 1081 628 971 727 626 533 367 0 -2385 -3234 -3501 -3509 -3153 -3327 -2148 196 386 -2271 -4009 -4545 -4448 -4591 -4227 -4282 -4030 -4044 -3871 -1521 -2190 -3614 -3817 -3578 -3247 -3254 -3394 -3658 -3935 -3954 -4522 -5013 -5141 -5111 -5070 -5262 -5120 -5057 -4917 -4874 -5003 -4680 -4255 -4917 -4769 -4189 -4064 -2519 -4997 -4921 -5390 -5331 -5483 -5682 -4376 -3820 -4858 -5258 -5619 -5856 -4711 -4824 -4797 -5664 -4895 -5221 -4913 -3872 -4392 -5395 -5280 -4986 -5231 -5499 -5538 -5567 -5581 -5538 -3931 -2375 -1880 -522 -258 -111 -62 -36 -53 -59 -26 37 71 169 214 85 36 -5 -51 -63 -70 -54 0 90 0 -2028 -2864 -2435 -3140 -4299 -4554 -4520 -4511 -4521 -4474 -3728 -2628 -2128 -3051 -3427 -2950 -3033 -3402 -3513 -3533 -2116 -2315 -3312 -1369 -2796 -3097 -3061 -2974 -3050 -2687 -2924 -2707 -2813 -2711 -2752 -2782
-2462 -2106 -1754 -2133 -3468 -3797 -4785 0 -3332 -3040 -3711 -4756 -5095 -5331 -5431 -5495 -5370 -4329 -4631 -4978 -5005 -5009 -4985 -4884 -4840 -4776 -4756 -4688 -4540 -3854 -3239 -2832 -2781 -2896 -2560 -3005 -3926 -3836 -3209 -3176 -3537 -3845 -4039 -4031 -4007 -4033 -4097 -4094 -4066 -3976 -4015 -4002 -3959 -3872 -3825 -3800 -3790 -3719 -3680 -3612 -3605 -3568 -3419 -3337 -3227 -3140 -3039 -2977 -3261 -3426 -3457 -3556 -3619 -3718 -3797 -3904 -3979 -4175 -4096 -3809 -3886 -3729 -3643 -3498 -3652 -3744 -3658 -3865 -3899 -3980 -4250 -4303 -4477 -4553 -4670 -4822 -4889 -4854 -4842 -4712 -4503 -4306 -4457 -1917 887 3565 4277 4480 4266 4334 3801 1367 383 218 213 236 220 248 238 393 541 520 345 296 432 587 569 462 300 380 595 698 755 699 758 555 534 671 611 579 145 -1625 -3754 -4312 -4491 -4596 -4393 -4476 -4640 -4987 -5191 -5166 -5388 -5427 -5601 -5603 -5581 -5489 -5350 -4893 -4731 -4601 -4261 -3823 -3479 -3153 -3074 -3344 -3409 -3617 -3547 -3788 -4169 -4248 -4373 -4601 -4978 -5196 -5249 -5365 -5282 -5372 -5405 -5432 -5425 -5414 -5246 -4925 -4631 -4219 -3532 -2835 4 1220 1417 1459 1512 1455 1371 1209 1137 1068 1039 1079 1115 1122 1149 1131 1088 933 994 1028 847 1175 948 741 661 571 485 346 0 -2396 -3102 -3457 -3611 -3294 -2465 -557 993 734 -1481 -3893 -4468 -4631 -4570 -4259 -4313 -4144 -4105 -3831 -253 -1786 -3724 -3725 -3476 -3175 -2719 -3111 -3356 -3794 -4115 -4663 -4975 -5062 -5113 -5067 -5111 -5202 -5005 -4975 -5001 -5008 -4697 -4701 -4593 -3822 -2418 -2811 -2721 -5153 -4855 -5429 -5446 -5486 -5561 -5070 -4813 -4543 -5447 -5387 -5865 -5322 -5139 -5310 -5999 -5888 -5202 -5585 -4518 -4685 -5660 -5416 -4424 -4085 -5196 -5601 -5612 -5579 -5426 -3355 -2060 -1012 -211 -114 -66 36 119 94 -21 21 144 115 203 137 64 9 -2 -40 -61 -60 -52 0 117 62 0 -1195 -1999 -1561 -2216 -3473 -4171 -4527 -4529 -4516 -4495 -3146 -3504 -3767 -2861 -2830 -3196 -3519 -4154 -3940 -4031 -2636 -2700 -1529 -2597 -3043 -3022 -3016 -3043 -3022 -2995 -2985 -2969 -2595 -2268 -2204
-2350 -2300 -1884 -1908 -1862 -2108 -1689 -5158 -4810 -4608 -5103 -5222 -5391 -5336 -5519 -5445 -5459 -5221 -4716 -4977 -5036 -5001 -4687 -4368 -4347 -4234 -4313 -4468 -4405 -4318 -4149 -2977 -1662 -1107 -1653 -2682 -3484 -2868 -2251 -2003 -2850 -3858 -4032 -4073 -4041 -3902 -4027 -4070 -4063 -4000 -4000 -4000 -3934 -3844 -3793 -3793 -3786 -3735 -3690 -3647 -3669 -3597 -3460 -3400 -3300 -3214 -3094 -3004 -3289 -3426 -3573 -3653 -3693 -3786 -3803 -3913 -4025 -3966 -3850 -3789 -3541 -3569 -3548 -3557 -3676 -3827 -3924 -4107 -4236 -4292 -4405 -4453 -4493 -4539 -4662 -4693 -4715 -4735 -4662 -4598 -4555 -4187 -3588 -3613 -1892 1199 2973 4101 4510 4190 3971 2539 1057 467 219 219 248 298 284 247 353 276 235 221 456 587 578 440 332 536 712 934 891 689 626 541 584 694 765 428 130 -1019 -3723 -4237 -4372 -4501 -4589 -4461 -4417 -4896 -5161 -5372 -5415 -5516 -5418 -5503 -5471 -5156 -5091 -4895 -4592 -4169 -3967 -3686 -3353 -2951 -2895 -3052 -3553 -3883 -3883 -4077 -4152 -3986 -4000 -4717 -4921 -4960 -5069 -5280 -5458 -5399 -5402 -5435 -5427 -5399 -5311 -5016 -4652 -4212 -3457 -1752 353 1228 1280 1241 1383 1312 1281 1218 1156 1083 1039 1070 1097 1097 1052 1091 1035 772 556 567 447 549 738 864 791 679 436 204 0 -2430 -3015 -3122 -2089 -1607 0 100 691 513 -892 -3987 -4449 -4692 -4423 -4410 -4432 -4260 -3889 -2871 -515 -1795 -3541 -3829 -3379 -3281 -3050 -2991 -3455 -3742 -4134 -4535 -4893 -4961 -5024 -4946 -5037 -5005 -4999 -4999 -5000 -4993 -5076 -5016 -4923 -4510 -3437 -2641 -2943 -5196 -4860 -5365 -5216 -5521 -5374 -5178 -5209 -5135 -5507 -5423 -5889 -5732 -5600 -5958 -5969 -5892 -5942 -5759 -5567 -5376 -5543 -5218 -4314 -4860 -5284 -5597 -5573 -5554 -5039 -2398 -1016 -175 -67 -52 13 267 346 178 39 56 120 177 177 141 93 28 0 -23 -49 -45 -52 0 70 130 143 -276 -1849 -1286 -1251 -1105 -1577 -2456 -3625 -4485 -4477 -3454 -3415 -2960 -2974 -3048 -3733 -4519 -4489 -4140 -3812 -3596 -1936 -1054 -2035 -3047 -3040 -3051 -3086 -3003 -3000 -2837 -2853 -2631 -2479 -2447
-527 -1752 -2066 -2417 -2037 -1891 -1495 -5148 -5443 -4699 -5210 -5008 -5487 -5582 -5522 -5505 -5416 -5116 -4571 -4944 -5041 -5024 -4783 -4588 -4389 -3830 -4109 -3576 -2458 -3706 -3988 -4072 -3714 -2046 -1179 -1186 -1475 -2187 -2447 -2465 -2564 -3106 -3895 -4086 -4309 -4025 -4049 -4071 -4057 -4030 -4000 -4005 -3825 -3859 -3797 -3762 -3747 -3701 -3654 -3579 -3608 -3578 -3468 -3401 -3266 -3173 -3044 -3055 -3314 -3466 -3609 -3691 -3718 -3736 -3743 -4063 -4002 -3915 -3540 -3753 -3856 -3787 -3904 -3837 -4070 -4063 -4250 -4284 -4389 -4427 -4427 -4363 -4429 -4497 -4580 -4605 -4550 -4648 -4579 -4561 -4522 -3750 -2864 -3244 -4556 -3641 -603 953 2931 4392 4047 4109 2564 1686 385 288 288 358 273 147 187 124 124 122 221 491 634 528 541 648 813 886 891 619 535 658 790 624 546 388 107 -470 -3008 -3878 -4143 -4353 -4544 -4591 -4711 -4897 -4980 -5204 -5319 -5486 -5345 -5065 -5040 -4769 -4710 -4658 -4381 -4075 -4002 -3754 -3488 -3342 -3211 -3416 -3560 -3650 -3778 -4082 -4210 -4299 -4132 -4734 -5078 -4978 -5127 -5152 -5455 -5494 -5420 -5420 -5420 -5391 -5311 -5051 -4734 -4198 -3365 -877 636 1156 1162 1146 1175 1080 1145 1175 1082 1036 1037 1042 1081 1070 1178 932 662 996 903 793 540 310 214 384 372 220 124 0 -1510 -2332 -2537 -1073 20 177 115 491 1031 328 -1438 -4271 -4558 -4708 -4636 -4431 -4474 -4227 -3172 -429 -994 -3020 -3450 -3790 -3660 -3246 -3150 -3195 -3453 -3989 -4409 -4667 -4477 -5003 -4627 -4831 -4961 -4735 -4835 -4984 -5063 -5216 -5420 -5318 -5162 -5028 -4846 -3178 -2659 -5134 -5075 -5111 -5054 -5438 -5010 -5254 -5377 -5313 -5598 -5527 -5867 -6009 -6004 -5982 -5912 -5944 -5914 -5653 -5507 -5454 -5534 -5102 -3771 -2882 -3861 -4496 -4549 -5034 -2863 -1073 -357 -55 -26 0 112 428 432 349 147 160 169 180 245 234 223 124 61 27 -9 -9 -36 8 70 164 361 59 -1238 -1259 -1079 -505 -631 -888 -1765 -3082 -3382 -3186 -2950 -2736 -3014 -3568 -4448 -4537 -4241 -4414 -4296 -4399 -4054 -1358 -1337 0 -3037 -3048 -2996 -2846 -2842 -2655 -2789 -1888 -903 -351
-1321 -1043 -2113 -2050 -2077 -1539 -1469 -5689 -5137 -4959 -5036 -5283 -5429 -5479 -5450 -5409 -4984 -4841 -4872 -4988 -5005 -4912 -4704 -4630 -4565 -4262 -4285 -4326 -3802 -3312 0 -3512 -3979 -3899 -2914 -3143 -2418 -2177 -2744 -3226 -3135 -2437 -3077 -3631 -3994 -4035 -4049 -4051 -4043 -4048 -4032 -4022 -4013 -3895 -3782 -3748 -3742 -3691 -3653 -3605 -3550 -3567 -3439 -3373 -3271 -3118 -2942 -3074 -3284 -3476 -3599 -3677 -3793 -3852 -4048 -4005 -4047 -4059 -4070 -4058 -4132 -4173 -4181 -4200 -4215 -4091 -4275 -4313 -4391 -4421 -4457 -4434 -4401 -4446 -4481 -4547 -4572 -4561 -4513 -4484 -3859 -3291 -3473 -4070 -4335 -5007 -5028 -1947 201 2351 4270 3956 3917 3508 2688 1259 529 300 297 263 196 128 123 122 134 512 694 747 744 560 639 744 812 627 636 709 799 728 554 252 38 -431 -1802 -3158 -3870 -4327 -4451 -4555 -4749 -4830 -4918 -5153 -5339 -5363 -5466 -5486 -5396 -5009 -4864 -4774 -4529 -4010 -3837 -3703 -3388 -3054 -2883 -2944 -3389 -3560 -3778 -4075 -4166 -4288 -4679 -4979 -5069 -5149 -5014 -5183 -5498 -5347 -5390 -5400 -5403 -5372 -5266 -4986 -4750 -4312 -3386 -525 1073 1163 1120 1098 1116 1043 1059 1143 1099 1040 1001 991 982 1031 1026 720 800 1010 1330 1221 987 585 210 160 76 0 -610 -1677 -2270 -2369 -1986 -348 184 483 579 918 849 0 -3103 -4568 -4728 -4848 -4695 -4552 -4409 -4187 -3064 -963 -3077 -3381 -3406 -3569 -3498 -3325 -3053 -2991 -3341 -3965 -4313 -4669 -4491 -4803 -4650 -4759 -4640 -4651 -4775 -4996 -5076 -5142 -5097 -5341 -5206 -4775 -4487 -3030 -2813 -5080 -5175 -5303 -5484 -5150 -4961 -5443 -5623 -5454 -5771 -5555 -5884 -6001 -5964 -5858 -5742 -5734 -5759 -5567 -5580 -5584 -5402 -5096 -4218 -2121 -2330 -2648 -2307 -2442 -956 -271 -177 -62 65 26 102 264 387 429 248 350 260 211 235 225 246 234 245 175 39 0 0 39 114 237 471 383 -221 -1201 -771 -488 -345 -558 -1336 -2149 -2771 -2137 -2544 -3022 -3019 -3825 -3942 -4029 -3887 -3434 -4308 -4480 -4559 -4306 -821 -2312 -3007 -2993 -2979 -2827 -2536 -2327 -2489 -29 0 -1582
-1695 -757 -2285 -2337 0 -1176 -2779 -5724 -5339 -4898 -4262 -4759 -5339 -5300 -5287 -5216 -4585 -4834 -4855 -4856 -4539 -4766 -4647 -4638 -4638 -4554 -4531 -3780 -4038 -3836 -3450 -3661 -4141 -4296 -4532 -4075 -4125 -3614 -3351 -3157 -3595 -3108 -2973 -2455 -3243 -3400 -3770 -4057 -4065 -4046 -4038 -4020 -4020 -3846 -3722 -3771 -3707 -3626 -3647 -3649 -3612 -3537 -3420 -3317 -3181 -3085 -2982 -3071 -3222 -3490 -3615 -3719 -3831 -3908 -3940 -4013 -4042 -4067 -4129 -4179 -4181 -4184 -4182 -4191 -4122 -3971 -4360 -4252 -4368 -4360 -4414 -4421 -4396 -4415 -4474 -4496 -4492 -4480 -4448 -4153 -3267 -3631 -4178 -4531 -4523 -4414 -4373 -5147 -2210 0 3817 3950 3775 3963 2632 1985 753 313 297 443 335 132 124 122 154 323 556 650 425 401 574 685 808 861 610 660 928 523 455 176 -9 -32 -1825 -3799 -3987 -4207 -4330 -4358 -4438 -4662 -4956 -5153 -5304 -5440 -5596 -5623 -5498 -5172 -5084 -4984 -4741 -4348 -3938 -3863 -3499 -3294 -2992 -2944 -3271 -3585 -3858 -4018 -4221 -4674 -4956 -5002 -5078 -5024 -5076 -5192 -5264 -5442 -5419 -5419 -5384 -5293 -5282 -5151 -4899 -4466 -3456 -714 568 1231 1177 1103 1108 1075 1070 1062 1030 1003 982 951 985 1009 917 1000 1113 1117 1302 1366 1270 517 155 58 0 -686 -1985 -2456 -2528 -2110 -2030 -989 192 713 1127 1250 697 -1062 -4062 -4636 -4785 -4750 -4678 -4500 -4127 -3224 -2926 -2811 -3793 -3782 -3490 -3566 -3132 -2627 -2913 -3078 -3473 -3764 -3961 -4234 -4301 -4529 -4557 -4612 -4753 -4800 -5189 -4994 -5068 -5016 -5273 -5320 -5000 -4764 -4595 -2856 -3233 -4931 -5073 -5459 -5253 -4937 -5310 -5547 -5579 -5507 -5867 -5837 -5788 -6006 -5914 -5750 -5622 -5616 -5629 -5600 -5536 -5252 -4661 -4623 -3279 -1645 -1668 -1505 -1017 -633 -212 -133 -86 -26 111 112 99 140 273 387 367 405 316 236 233 248 217 219 263 243 101 40 32 55 192 402 590 372 -6 -288 -797 -869 -1109 -1496 -1868 -2455 -2437 -2320 -2606 -3229 -2448 -3644 -3156 -3044 -2543 -1430 -3093 -4016 -4423 -4687 -1457 -1533 -2762 -3013 -2994 -2936 -2870 -2686 -2795 -1375 -1051 -2299
-2198 -1120 -2364 -2349 -2165 -1022 -4456 -6783 -5522 -5014 -4340 -5040 -4952 -5151 -5083 -5106 -4996 -4824 -4822 -4791 -4452 0 -4282 -4665 -4657 -4626 -4629 -4521 -3894 -4053 -4021 -3832 -4240 -4444 -4259 -4251 -4197 -4750 -4071 -3752 -3723 -3448 -3820 -3754 -3517 -3346 -3399 -3701 -3950 -4075 -4049 -4014 -4015 -3926 -3811 -3747 -3674 -3675 -3638 -3611 -3569 -3520 -3411 -3344 -3212 -3194 -3038 -3231 -3408 -3542 -3670 -3783 -3868 -3919 -3927 -4009 -4038 -4083 -4136 -4157 -4173 -4213 -4208 -4224 -4153 -4020 -4189 -4294 -4226 -4072 -4257 -4332 -4316 -4349 -4462 -4505 -4492 -4370 -4001 -3349 -3625 -4200 -4446 -4600 -4719 -4819 -4590 -4233 -5079 -792 2867 3904 3765 4353 3414 2102 832 346 306 269 184 122 126 122 232 394 463 401 354 346 532 715 856 937 678 790 829 477 386 163 -80 -303 -2526 -3828 -4157 -4205 -4191 -4208 -4297 -4672 -5070 -5170 -5265 -5426 -5603 -5596 -5454 -5448 -5147 -4994 -4764 -4583 -4227 -4000 -3835 -3476 -3075 -2885 -2994 -3366 -3662 -3898 -4454 -4719 -4853 -4959 -4861 -5049 -5155 -5286 -5282 -5402 -5406 -5428 -5309 -5036 -5171 -5014 -4549 -3298 -1564 -624 -47 813 1213 1244 1264 1407 1216 1075 1033 982 926 945 965 952 998 1070 1279 1306 1290 1052 1010 340 53 -24 -245 -1479 -2220 -2662 -2686 -2595 -2179 -1364 46 492 1297 1479 329 -2537 -4425 -4695 -4798 -4697 -4383 -4344 -4063 -1701 -2893 -3898 -3855 -3089 -2805 -2290 -2787 -2505 -2679 -3038 -3133 -3312 -3639 -4112 -4381 -4566 -4561 -4607 -4755 -4703 -5231 -4968 -4987 -4951 -5206 -5027 -4966 -4702 -4258 -2218 -3331 -4867 -5075 -5242 -5064 -5057 -5276 -5351 -5503 -5654 -5917 -5989 -6001 -5999 -5999 -5733 -5530 -5591 -5593 -5550 -5234 -4599 -3727 -2719 -1677 -1167 -1377 -722 -146 -91 -57 -47 -25 40 124 165 188 208 303 341 386 422 336 283 271 300 275 227 239 257 234 159 78 95 234 614 615 399 130 0 -14 -108 -395 -466 -687 -2114 -2937 -3135 -2495 -2623 -492 -1947 -2542 -3240 -3354 -867 -2297 -2578 -3797 -4597 -3088 -1142 -2469 -3141 -3034 -2869 -2982 -3044 -3026 -2581 -2623 -2870
-2384 -1044 -2651 -2378 -1621 -1087 -6163 -6189 -5574 -5391 -5488 -5494 -5434 -5094 -4998 -4941 -4979 -4945 -4857 -4742 -4703 -4491 -4104 -4659 -4681 -4591 -4645 -4527 -4427 -4218 -4417 -4488 -4355 -4477 -4371 -4201 -3800 -4363 -4347 -4187 -3211 -3305 -3711 -4055 -4044 -4021 -3997 -3963 -3956 -4003 -4028 -3966 -3899 -3790 -3746 -3711 -3667 -3639 -3614 -3586 -3549 -3508 -3405 -3324 -3311 -3185 -3144 -3345 -3467 -3524 -3683 -3800 -3877 -3917 -3922 -3975 -4016 -4060 -4084 -4106 -4145 -4140 -4183 -4169 -4183 -3962 -4001 -4153 -4179 -4220 -4161 -4195 -4230 -4268 -4385 -4495 -4464 -4151 -3177 -3003 -4163 -4455 -4586 -4793 -4941 -4905 -4740 -4300 -5069 0 1933 4017 3673 3875 3326 1927 883 429 321 180 144 103 141 180 310 476 411 334 308 413 477 553 804 864 894 1006 881 739 640 141 -1275 -2027 -1809 -2807 -2953 -3214 -3761 -4106 -4035 -4622 -4234 -4657 -5139 -5444 -5581 -5531 -5425 -5269 -4999 -4959 -4693 -4629 -4293 -4126 -3963 -3763 -3461 -3052 -2783 -3176 -3478 -4143 -4506 -4899 -4842 -4818 -4973 -4966 -5213 -5275 -5373 -5378 -5370 -5355 -5201 -4632 -4321 -3823 -2260 -2441 -1864 -1160 -307 264 817 1163 1467 1395 1295 1236 1124 1010 957 947 915 888 991 1199 1191 1065 844 641 556 197 22 -137 -1235 -2238 -2637 -2884 -2788 -2849 -2490 -1509 117 473 1291 1130 0 -3614 -4626 -4725 -4761 -4351 -4111 -3029 -4033 0 -4201 -4114 -3896 -3896 -3610 -3153 -3153 -3005 -2908 -2826 -2624 -2970 -3397 -3956 -4453 -4636 -4483 -4504 -4611 -4531 -4910 -4915 -5245 -4986 -4979 -4848 -4744 -4425 -3976 -2543 -3634 -4879 -4619 -4767 -5077 -5088 -5169 -5264 -5367 -5697 -5992 -6004 -6022 -5846 -5865 -5410 -5199 -5310 -5407 -5240 -5050 -4869 -4304 -1963 -1144 -1146 -830 -49 -19 -12 28 64 148 189 190 254 284 269 306 336 397 378 378 376 354 339 383 292 263 215 280 310 146 117 190 363 593 378 239 155 41 -9 -32 -143 -350 -1441 -2637 -3011 -2566 -1891 -75 -1451 -1171 -1344 -3184 -3020 -429 -1348 -1599 -2915 -5112 -1676 -2409 -3055 -3298 -2991 -2960 -3021 -2941 -2952 -3447 -3296
-2173 -1287 -2537 -2264 -974 -3113 -6966 -5994 -5742 -5636 -5602 -5436 -5513 -5316 -5072 -5050 -5020 -4885 -4607 -4664 -4150 -4644 -4593 -4670 -4636 -4336 -4598 -4519 -4420 -4320 -4533 -4532 -4521 -4502 -4445 -4321 -4376 -4434 -4478 -3937 -3972 -3396 -3161 -2635 -3307 -3693 -3994 -4031 -4023 -3982 -3949 -3909 -3868 -3790 -3730 -3673 -3630 -3606 -3575 -3555 -3531 -3464 -3404 -3285 -3188 -3080 -3180 -3422 -3511 -3580 -3679 -3782 -3860 -3894 -3909 -3951 -4004 -4045 -4061 -4079 -4046 -3991 -3944 -4156 -4040 -3974 -3966 -4062 -4081 -4182 -4217 -4246 -4205 -4201 -4226 -4339 -4193 -3099 -2152 -3915 -4343 -4533 -4631 -4721 -4866 -4694 -4710 -4433 -5260 -1822 1674 4154 4278 4073 3368 1897 666 356 271 174 128 122 187 314 473 376 331 299 351 421 471 572 704 984 944 1052 724 328 126 -140 -1897 -3034 -3828 -4264 -4334 -4263 -4071 -4412 -4565 -4932 -5149 -5214 -5295 -5407 -5440 -5448 -5486 -5402 -5312 -5061 -4866 -4676 -4573 -4122 -3999 -3889 -3525 -3117 -2930 -3234 -3710 -4343 -4608 -4812 -4927 -4886 -5108 -5125 -5236 -5454 -5364 -5357 -5344 -4992 -4490 -4089 -3531 -2971 -3944 -3912 -3334 -2261 -759 -69 633 1230 1473 1510 1391 1283 1186 1120 1053 987 943 966 1029 938 814 695 554 413 230 130 79 -282 -1625 -3002 -3075 -2496 -2996 -3078 -2364 0 300 567 1033 586 -927 -4118 -4682 -4686 -4704 -4349 -3878 0 -3602 -4234 -4227 -4143 -4102 -4013 -3953 -3722 -3579 -3355 -3230 -3074 -2856 -2926 -3363 -3703 -4260 -4518 -4348 -4451 -4567 -4433 -4663 -4992 -5375 -5026 -4927 -4811 -4699 -4490 -3950 -2718 -3755 -4879 -4654 -4829 -5004 -4989 -5156 -5075 -5219 -5684 -5938 -6016 -6030 -5799 -5490 -4228 -3379 -4696 -5005 -4628 -4458 -4976 -5009 -4585 -2771 -1199 -168 19 202 234 224 269 288 281 281 287 308 328 375 386 365 406 448 494 502 466 439 358 275 217 221 344 273 197 194 269 325 330 225 273 206 4 -36 -33 -61 -550 -2046 -2730 -1628 -1601 -955 -707 -1678 -1192 -1434 -3377 -2836 0 -1031 -1476 -2452 -3639 -2332 -2976 -2979 -2697 -2673 -2672 -3156 -3826 -3902 -3609
-2148 -1751 -2637 -1934 -1606 -6277 -6258 -5915 -5872 -5813 -5724 -5594 -5577 -5490 -5169 -5302 -5055 -4757 -4837 -4857 -4714 -4669 -4633 -4721 -4640 -4485 -4421 -4280 -3934 -4392 -4539 -4524 -4554 -4574 -4572 -4559 -4308 -4502 -4369 -4192 -4026 -3774 -4036 -3798 -3892 -3231 -3003 -3694 -3759 -3610 -3726 -3852 -3846 -3763 -3682 -3627 -3579 -3528 -3528 -3537 -3495 -3405 -3289 -3104 -3183 -3100 -3306 -3467 -3527 -3639 -3685 -3771 -3832 -3877 -3896 -3929 -3963 -4011 -4006 -4017 -4037 -4048 -4020 -4015 -3991 -3981 -3991 -4000 -4056 -4100 -4118 -4106 -4108 -4212 -4194 -4216 -3766 -2581 -3706 -4412 -4546 -4563 -4524 -4632 -4627 -4530 -4414 -3803 -5546 -1560 1789 3311 4691 4336 3626 983 343 246 224 154 122 122 155 288 524 390 293 325 363 463 545 599 652 1051 1024 902 391 400 -7 -394 -2298 -3191 -3479 -4096 -4359 -4535 -4750 -4626 -4714 -5069 -5177 -5262 -5395 -5540 -5605 -5626 -5754 -5651 -5194 -5015 -4917 -4713 -4561 -4099 -3998 -3739 -3317 -3124 -3411 -3755 -4355 -4591 -4732 -5077 -5120 -5148 -5267 -5331 -5397 -5409 -5397 -5191 -5149 -4957 -4407 -2984 -2553 -3308 -4269 -4252 -3794 -3011 -1389 -191 185 1014 1565 1670 1418 1346 1233 1121 1058 988 959 1020 1095 862 756 689 532 308 174 104 117 0 -1714 -3175 -3281 -3008 -2954 -3189 -2876 0 582 844 916 163 -2103 -4252 -4633 -4708 -4749 -4286 -4089 -4098 -4323 -4517 -4476 -4395 -4123 -4121 -4087 -4129 -3968 -3846 -3633 -3246 -3040 -2941 -3489 -3996 -3992 -4265 -4148 -4495 -4298 -4440 -4505 -4902 -4965 -4673 -4781 -4736 -4505 -4544 -4121 -2961 -3812 -4980 -4783 -4804 -4996 -5170 -5297 -4999 -5290 -5653 -5766 -5827 -5716 -5338 -5254 -4526 -2893 -4301 -5109 -3373 -3878 -4609 -4990 -5029 -3121 -712 25 113 390 594 568 442 437 402 302 300 334 361 390 409 372 427 565 608 625 580 519 409 278 210 176 216 215 194 197 246 236 302 263 286 181 72 0 -55 -73 -210 -1432 -2520 -1841 -2131 -2417 -1627 -1988 -1489 -1903 -2269 -3388 -3129 -716 -808 -1455 -3192 -4351 -2843 -3022 -3399 -3741 -3836 -4068 -4113 -3965 -3384
-2035 -1525 -2318 -1685 -3830 -7328 -5802 -5793 -5847 -5830 -5778 -5684 -5640 -5610 -5387 -5047 -5127 -4954 -4872 -4833 -4896 -4818 -4826 -4802 -4748 -4641 -4620 -4600 -4582 -4575 -3896 -4515 -4258 -4723 -4601 -4907 -4703 -4559 -4541 -4370 -4203 -4149 -3916 -3898 -3567 -3139 -3753 -3630 -3522 -2968 -3532 -3719 -3704 -3650 -3600 -3546 -3452 -3397 -3374 -3384 -3304 -3292 -3212 -3130 -3009 -3167 -3328 -3406 -3375 -3602 -3660 -3776 -3799 -3837 -3852 -3862 -3866 -3874 -3738 -3848 -3834 -3841 -3884 -3865 -3835 -3754 -3832 -3905 -4010 -4079 -3937 -3939 -3994 -3925 -3495 -3553 -3752 -3179 -4168 -4307 -4597 -4563 -4560 -4506 -4524 -4249 -3932 -3923 -5659 0 1930 2783 4417 4017 3313 707 241 210 148 121 120 120 120 192 423 309 363 392 544 577 598 653 717 692 513 27 -82 -170 -316 -2232 -3026 -3396 -3845 -4099 -4153 -4356 -4624 -4940 -5033 -5227 -5177 -5166 -5395 -5434 -5449 -5517 -5637 -5490 -5141 -4999 -4914 -4700 -4545 -4199 -3789 -3597 -3020 -3201 -3511 -3986 -4389 -4713 -4872 -5111 -5185 -5299 -5361 -5512 -5525 -5489 -5258 -5216 -5047 -4700 -3590 -2276 -2390 -4281 -3974 -4381 -3890 -3213 -1820 -310 85 859 1605 1436 1340 1285 1206 1122 1063 1015 1027 1056 1002 920 1040 1104 547 310 130 68 123 0 -1848 -2932 -3055 -3209 -3240 -3434 -3266 -1271 355 698 955 47 -2891 -4007 -4477 -4825 -4938 -4561 -4247 -4269 -4616 -4694 -4793 -4598 -4444 -4239 -4185 -4188 -4053 -3989 -3902 -3665 -3233 -2926 -3397 -3630 -3910 -4053 -4147 -4182 -4295 -4486 -4408 -4353 -4430 -4576 -4581 -4517 -4528 -4630 -4028 -3042 -3966 -5002 -4805 -4716 -4983 -5327 -5277 -5193 -5476 -5586 -5710 -5685 -5588 -4879 -5207 -5122 -4787 -5346 -5354 -3838 -2864 -3797 -4864 -3536 -1028 -116 111 257 303 390 613 575 527 462 363 370 388 386 381 431 441 498 590 663 654 673 578 368 235 174 134 129 140 142 220 208 227 324 361 282 180 100 47 -10 -193 -721 -1557 -2411 -1983 -2163 -2664 -1908 -1988 -1492 -1955 -2439 -2901 -3496 -2267 -926 -1509 -2022 -3746 -4764 -4865 -4347 -4204 -4350 -4396 -4289 -3944 -3177
-1809 -1410 -1771 -1167 -5430 -6184 -5546 -5651 -5719 -5713 -5702 -5684 -5651 -5659 -5538 -5405 -5259 -5209 -5005 -4981 -4993 -4618 -4848 -4945 -4863 -4729 -4832 -4805 -4744 -4777 -4681 -4073 -4119 -4221 -4043 -4572 -4565 -4472 -4512 -4408 -4247 -4175 -4168 -4063 -4045 -3829 -3997 -3866 -3601 -3387 -3526 -3309 -3511 -3523 -3130 -2806 -3137 -3227 -3294 -3290 -3237 -3206 -3004 -2844 -3144 -3356 -3384 -3197 -2957 -3556 -3658 -3769 -3760 -3732 -3727 -3723 -3717 -3719 -3679 -3686 -3635 -3626 -3663 -3629 -3740 -3574 -3685 -4037 -3982 -3679 -3792 -3654 -3941 -3868 -3522 -3331 -3394 -3745 -4131 -4182 -4257 -4491 -4472 -4448 -4329 -3701 -3918 -4229 -5424 0 2437 4033 3994 4226 2034 946 236 174 139 99 90 90 91 161 316 287 463 588 630 820 780 477 75 -27 -81 -134 -1021 -1604 -2184 -2890 -3311 -3741 -4020 -4120 -4213 -4423 -4663 -4950 -5209 -5325 -5373 -5444 -5391 -5347 -5189 -5194 -5287 -5318 -5130 -4902 -4688 -4480 -4126 -3970 -3928 -3382 -2967 -3306 -3707 -3927 -4307 -4247 -4615 -4962 -5001 -4991 -5144 -5247 -5286 -5353 -5186 -5180 -5259 -5067 -3994 -2179 -1833 -3955 -4784 -4455 -4095 -3618 -2530 -584 37 949 1494 1252 1198 1139 1143 1093 1058 1084 1121 1105 980 1164 1202 1081 941 337 106 58 56 -363 -2065 -3044 -3286 -3439 -3505 -3745 -3633 -2349 246 352 471 -798 -3888 -4404 -4646 -5008 -5060 -4895 -4758 -4664 -4860 -4961 -5020 -4850 -4833 -4525 -4354 -4398 -4299 -4078 -3969 -3735 -3512 -3101 -3146 -3407 -3606 -3684 -3919 -3983 -3977 -4138 -4201 -4370 -4437 -4400 -4366 -4445 -4593 -4587 -4068 -2454 -3597 -4845 -4874 -4717 -5002 -5329 -5309 -5333 -5435 -5547 -5592 -5622 -5077 -4499 -4997 -5405 -5322 -5013 -5060 -3709 -2803 -3753 -3420 -1451 -335 0 144 258 382 466 514 602 576 514 446 426 421 426 433 457 498 497 541 600 558 475 345 230 162 105 74 92 100 160 188 195 250 336 463 402 246 149 249 75 -19 -1087 -4157 -4078 -2899 -2596 -2684 -1645 -1707 -1480 -1473 -2217 -2842 -3557 -3021 -1422 -1757 -1949 -3259 -4328 -4505 -4282 -4415 -4506 -4496 -4349 -3971 -2787
-2027 -1688 -1671 -1353 -4848 -5165 -5277 -5423 -5702 -5708 -5680 -5741 -5641 -5602 -5565 -5501 -5402 -5391 -5184 -5121 -5106 -5123 -5135 -5052 -5003 -4951 -4780 -4775 -4739 -4650 -4604 -4509 -4245 -3749 -3954 -4348 -4452 -4471 -4495 -4474 -4279 -4216 -4173 -4151 -4113 -3995 -4016 -4072 -3948 -3712 -3625 -3738 -3649 -3617 -3580 -3428 -3416 -3392 -3400 -3332 -3019 -3088 -2865 -2664 -2909 -3062 -3028 -2900 -2948 -3291 -3463 -3546 -3544 -3563 -3641 -3586 -3443 -3504 -3251 -2853 -3195 -2823 -3073 -3045 -3489 -3483 -3438 -3146 -3108 -3017 -3509 -3463 -3642 -3520 -2897 -3018 -3228 -2879 -3889 -4142 -4129 -4145 -4177 -4143 -3545 -3680 -4203 -4105 -5142 98 2997 4331 4210 3409 1476 525 221 192 133 97 71 78 135 216 268 257 520 723 944 817 874 177 -42 -94 -177 -1077 -1927 -2262 -2623 -3045 -3612 -4002 -4158 -4238 -4330 -4416 -4576 -4831 -5108 -5289 -5384 -5449 -5432 -5392 -5156 -4836 -4776 -4765 -4808 -4664 -4576 -4188 -4046 -3994 -3881 -3424 -2860 -3170 -3653 -4015 -4227 -4480 -4632 -4715 -4771 -4752 -4935 -4989 -4990 -5197 -5155 -5109 -5097 -4975 -4058 -2201 -2043 -4210 -4849 -4599 -4384 -4025 -3014 -1008 -104 792 1497 1181 1112 1052 989 1032 1009 1053 1143 1267 1283 1190 1280 1483 1335 410 47 -229 -302 -1065 -2069 -3211 -3773 -3954 -4097 -4088 -3979 -3486 -647 38 -412 -2328 -4532 -4848 -5013 -5117 -5363 -5235 -4947 -5006 -5062 -5157 -5250 -5122 -4971 -4860 -4610 -4658 -4429 -4380 -4242 -3937 -3511 -3185 -3017 -3352 -3424 -3636 -3822 -3951 -4039 -4044 -4309 -4347 -4029 -4187 -4372 -4448 -4449 -4516 -3948 -1877 -3360 -4820 -4684 -4740 -4846 -4988 -5144 -5212 -5323 -5444 -5441 -4636 -3117 -4428 -5038 -5168 -4990 -5052 -4982 -5427 -4346 -3899 -3236 -1244 -202 -4 93 236 369 442 520 574 580 537 472 457 452 434 477 520 618 670 585 524 489 400 270 151 111 58 52 66 76 133 133 203 299 361 446 566 422 261 297 172 26 -198 -3790 -4360 -4362 -3407 -2776 -1541 -1628 -1471 -1444 -1944 -2821 -3422 -3093 -1616 -2106 -2355 -2903 -4130 -4193 -4500 -4522 -4506 -4498 -4329 -3915 -2573
-2067 -2263 -1927 -2584 -5663 -4388 -5318 -5574 -5570 -5445 -5493 -5805 -5646 -5586 -5582 -5501 -5417 -5433 -5445 -5281 -5154 -5189 -5159 -5123 -5052 -4975 -4890 -4760 -4710 -4640 -4530 -4415 -4158 -2825 -3366 -3564 -4004 -4131 -4321 -4391 -4250 -4246 -4221 -4200 -4177 -4149 -4130 -4124 -4086 -4026 -3939 -3895 -3797 -3769 -3708 -3641 -3596 -3533 -3390 -3398 -3432 -3352 -3214 -3159 -2917 -2793 -2904 -2646 -2769 -2806 -3117 -3291 -3126 -3008 -3025 -3128 -3333 -3244 -3001 -3122 -3424 -3561 -3548 -3580 -3710 -3566 -3520 -3556 -3734 -3834 -3921 -3678 -3417 -3423 -3736 -3939 -4071 -3791 -3731 -3794 -3551 -3997 -4155 -4025 -3951 -4220 -4025 -4250 -5095 470 3248 4732 3890 3388 1407 354 187 167 114 90 62 61 79 119 200 273 574 698 953 903 514 9 -86 -286 -1396 -2357 -2403 -2441 -2600 -3218 -3790 -4194 -4365 -4391 -4408 -4397 -4509 -4562 -4722 -5021 -5169 -5139 -5048 -5016 -4970 -4959 -4870 -4717 -4663 -4599 -4426 -4078 -4000 -3998 -3737 -3233 -2832 -3188 -3594 -3921 -4106 -4102 -4251 -4556 -4636 -4751 -4599 -4686 -4960 -5081 -4929 -5065 -4838 -3464 -2871 -2361 -3505 -4867 -4798 -4751 -4583 -4182 -3230 -1217 -237 534 1362 1034 1038 973 878 951 1020 1143 1250 1369 1447 1514 1584 1645 1428 491 24 -572 -975 -1452 -1970 -3675 -4369 -4403 -4382 -4271 -4225 -3756 -2287 -1158 -2029 -2806 -4465 -4923 -5167 -5209 -5346 -5276 -5321 -5217 -5090 -5271 -5387 -5320 -5250 -4906 -4617 -4468 -4302 -4325 -3694 -3612 -3554 -3388 -3331 -3007 -3043 -3190 -3526 -3738 -3972 -4229 -4277 -4092 -4076 -4184 -4299 -4370 -4495 -4504 -3650 -2059 -3731 -4524 -4662 -4800 -4555 -4759 -4823 -4886 -4945 -4975 -4719 -3644 -4154 -4592 -4974 -4987 -4921 -4896 -5182 -5306 -5529 -5150 -4030 -1872 -379 -22 122 275 355 449 505 575 544 508 464 461 436 456 467 457 524 638 622 622 547 376 236 104 35 14 24 39 92 105 151 192 253 298 366 429 367 306 341 376 143 -219 -3995 -4477 -4596 -3710 -3330 -2417 -1770 -1488 -1445 -1582 -2798 -3442 -3319 -1455 -2518 -2912 -3415 -3493 -3722 -4294 -4456 -4506 -4505 -4340 -4064 -2831
-1672 -2369 -2030 -3349 -6845 -4870 -5009 -5421 -5411 -5406 -5491 -5599 -5607 -5551 -5567 -5475 -5408 -5400 -5290 -5114 -5038 -5069 -5023 -5094 -5194 -5188 -5069 -4842 -4627 -4674 -4582 -4609 -4466 -4095 -3621 -2706 -2806 -3481 -4062 -4096 -4237 -4251 -4246 -4239 -4234 -4207 -4189 -4172 -4167 -4131 -4071 -3954 -3831 -3815 -3711 -3652 -3635 -3578 -3533 -3517 -3536 -3549 -3444 -3317 -3137 -2971 -2655 -2627 -2808 -2835 -2598 -3098 -2950 -3030 -2949 -3295 -3336 -3038 -3106 -3243 -3516 -3588 -3547 -3527 -3640 -3592 -3597 -3662 -3691 -3676 -3589 -3411 -3220 -3729 -3857 -3951 -3916 -3856 -3920 -3995 -3987 -4096 -4157 -4159 -4002 -4198 -4051 -4293 -3987 944 3858 4406 2347 1925 555 234 153 137 96 66 61 61 63 81 166 227 332 447 678 847 676 60 -154 -1161 -2404 -2878 -2799 -2673 -3013 -3307 -3973 -4237 -4287 -4391 -4451 -4331 -4340 -4538 -4692 -4871 -4990 -4999 -4989 -4915 -4898 -4898 -4910 -4899 -4687 -4552 -4274 -4006 -4000 -3915 -3554 -3309 -2855 -3319 -3507 -3551 -3796 -4076 -4236 -4305 -4363 -4555 -4600 -4596 -4879 -5019 -4809 -4611 -4222 -2943 -3921 -4660 -4802 -4974 -4822 -4735 -4759 -4436 -3719 -2127 -576 176 929 850 1171 915 865 948 1146 1379 1270 1303 1328 1473 1630 1658 1310 520 0 -1229 -1516 -1716 -1833 -4123 -4687 -4646 -4514 -4433 -4376 -4168 -2552 -1798 -1522 -2175 -3270 -4758 -5126 -5222 -5342 -5404 -5267 -5123 -5035 -5231 -5426 -4963 -4949 -4730 -4196 -3709 -3459 -3830 -3684 -3683 -3875 -3744 -3502 -3392 -3370 -3152 -3181 -3671 -3810 -4216 -4285 -4127 -4057 -4100 -4092 -4323 -4499 -4379 -3735 -2396 -4383 -4504 -4519 -4747 -4348 -4566 -4577 -4473 -4524 -4556 -4139 -4089 -4560 -4625 -4718 -4767 -4634 -4904 -5278 -5367 -5403 -5659 -5350 -3620 -965 -79 182 275 372 446 486 519 496 514 507 457 430 414 448 410 412 466 466 456 405 318 210 114 30 5 28 32 59 88 130 170 197 226 244 262 252 276 330 430 126 0 -3446 -3917 -4509 -3141 -3082 -3240 -2286 -1690 -1470 -1587 -3070 -3517 -3480 -1727 -3076 -3166 -3244 -3317 -3049 -3550 -4093 -4488 -4445 -4158 -3765 -3408
-1740 -2020 -2001 -4514 -6788 -5614 -4264 -5346 -5360 -5286 -5428 -5494 -5555 -5528 -5422 -5235 -5402 -5351 -5189 -5028 -4951 -5112 -5065 -5057 -5082 -5216 -5235 -5085 -4702 -4618 -4633 -4723 -4594 -4510 -4489 -4383 -3465 -3615 -3885 -3720 -4040 -4248 -4245 -4184 -4237 -4237 -4236 -4206 -4183 -4031 -4167 -4020 -3840 -3736 -3737 -3722 -3647 -3607 -3606 -3577 -3413 -3555 -3509 -3332 -3228 -3103 -2943 -2812 -2979 -2977 -3006 -3022 -3084 -3090 -3214 -3272 -3337 -3309 -3373 -3432 -3548 -3549 -3570 -3573 -3534 -3568 -3519 -3530 -3336 -3195 -3261 -3467 -3556 -3787 -3829 -3783 -3827 -3993 -4000 -3898 -3965 -4056 -4020 -4182 -4157 -4230 -4159 -4790 -1852 1878 4099 3090 1936 1078 665 217 141 99 87 60 60 61 61 75 146 288 376 565 781 985 442 -41 -259 -1822 -3004 -3575 -3646 -3537 -3465 -3646 -4005 -4054 -4108 -4235 -4352 -4165 -3880 -3547 -3184 -3159 -4093 -4623 -4990 -5009 -4957 -4990 -4948 -4717 -4587 -4348 -4076 -4011 -3998 -3927 -3788 -3423 -2879 -2858 -3014 -3272 -3787 -4047 -4165 -4200 -4351 -4505 -4595 -4601 -4689 -4694 -4571 -4312 -3544 -3688 -5019 -4904 -4856 -4994 -4942 -4816 -4775 -4423 -3776 -2488 -620 -97 184 607 824 768 809 935 1195 1344 1144 1281 1379 1574 1995 1349 1050 356 -519 -1807 -1890 -2241 -2165 -4669 -4810 -4755 -4646 -4577 -4529 -4110 -2462 -2648 -2859 -2898 -2516 -3969 -4975 -5134 -5241 -5129 -5032 -4989 -5159 -5354 -5003 -4723 -4441 -3811 -3826 -3653 -4067 -3951 -4147 -4222 -4018 -3936 -3913 -3816 -3701 -3248 -3332 -3444 -3675 -3865 -4007 -4015 -4035 -4095 -4181 -4312 -4327 -4273 -3842 -3481 -4004 -4129 -4262 -4316 -4031 -3628 -3385 -3284 -3864 -4056 -2725 -3642 -4335 -4588 -4377 -4397 -4724 -4689 -4962 -5064 -5294 -5708 -5631 -5333 -2792 -468 117 282 349 395 460 448 434 451 477 436 376 336 365 348 335 362 344 320 285 229 178 106 19 -9 23 22 58 111 103 137 157 171 158 169 185 208 271 548 278 0 -3223 -3643 -4551 -3904 -2842 -3234 -2251 -1613 -1495 -1630 -3201 -3336 -3398 -1566 -2651 -2886 -2677 -2968 -2642 -2751 -3834 -3823 -4031 -3895 -3641 -3153
-1861 -1640 -2855 -6174 -6037 -5815 -5492 -5616 -5507 -5426 -5464 -5477 -5480 -5533 -5339 -5196 -5294 -5315 -5227 -5367 -5190 -5095 -5182 -5184 -5192 -5239 -5276 -5278 -5122 -4762 -4559 -4733 -4686 -4703 -4658 -4580 -4526 -4388 -4320 -4071 -4273 -4306 -4282 -4247 -4227 -4229 -4293 -4268 -4246 -4207 -4118 -4042 -4006 -3926 -3846 -3772 -3745 -3697 -3671 -3655 -3554 -3519 -3479 -3432 -3297 -3151 -2979 -2857 -2928 -3007 -3062 -3148 -3210 -3298 -3379 -3477 -3535 -3470 -3511 -3572 -3548 -3621 -3607 -3680 -3669 -3668 -3638 -3569 -3483 -3487 -3543 -3609 -3654 -3803 -3921 -3842 -3957 -4006 -4007 -4004 -3986 -4020 -4172 -4259 -4221 -4362 -4385 -4971 -681 3119 3637 1774 1485 402 311 300 210 91 83 50 38 79 77 105 152 228 232 263 247 439 -22 -145 -1085 -2288 -3260 -3693 -3929 -4072 -3942 -3831 -3870 -4321 -3742 -2973 -3348 -2699 -3340 -3769 -3601 -3296 -3364 -4360 -4606 -4759 -4911 -4944 -4792 -4603 -4615 -4465 -4224 -4026 -3949 -3679 -3534 -3140 -2932 -2976 -3282 -3606 -3817 -3960 -4124 -4203 -4418 -4602 -4661 -4643 -4617 -4547 -4165 -3792 -2620 -4088 -5277 -5009 -5015 -5037 -5033 -4944 -4671 -4132 -3585 -2611 -773 -189 -114 568 923 959 888 965 1087 1087 1202 1363 1487 1840 2370 1742 742 -126 -1306 -2361 -2493 -2086 -2691 -4967 -4864 -4819 -4724 -4605 -4352 -3291 -2482 -2565 -2432 -3040 -3279 -4222 -4916 -5012 -4775 -4675 -4847 -5027 -4793 -4901 -4750 -4425 -3998 -3873 -4235 -4559 -4616 -4602 -4418 -4438 -4335 -4268 -4142 -4020 -3927 -3565 -3204 -3244 -3451 -3570 -3865 -4000 -4012 -4080 -4159 -4182 -4176 -4218 -3748 -2211 -2674 -3250 -3073 -3105 -3402 -2557 -2640 -2804 -3187 -3396 -2325 -3384 -4246 -4589 -4477 -4651 -4956 -4734 -5141 -5157 -5309 -5626 -5631 -5377 -4848 -2490 -159 247 309 337 428 423 414 385 412 415 321 218 216 232 228 223 215 219 201 176 163 143 51 23 61 36 69 155 90 136 122 130 125 138 152 200 415 806 206 -224 -3851 -4489 -4569 -3596 -2590 -2523 -1777 -1415 -1346 -1742 -3189 -3154 -3179 -1969 -1668 -2570 -2731 -2531 -2341 -2581 -3816 -4035 -3979 -3912 -3540 -2664
-2327 -1636 -4482 -6972 -5673 -5638 -5367 -5442 -5741 -5549 -5494 -5442 -5448 -5465 -5407 -5288 -5329 -5325 -5320 -5323 -5277 -5323 -5317 -5311 -5305 -5295 -5257 -5270 -5227 -4930 -4698 -4765 -4763 -4819 -4837 -4846 -4809 -4670 -4459 -4302 -4286 -4312 -4306 -4304 -4289 -4260 -4261 -4198 -4236 -4207 -4056 -4016 -3952 -3962 -3882 -3797 -3752 -3729 -3686 -3652 -3609 -3536 -3465 -3434 -3356 -3183 -2926 -2805 -2740 -2988 -3049 -3138 -3237 -3336 -3416 -3485 -3531 -3576 -3610 -3615 -3605 -3624 -3617 -3607 -3590 -3623 -3668 -3565 -3518 -3490 -3689 -3609 -3633 -3725 -3822 -3867 -3982 -4002 -4000 -4001 -3958 -4153 -4235 -4373 -4433 -4285 -4296 -4818 0 3192 2827 1200 1040 558 324 661 182 90 67 46 48 63 74 182 173 191 197 193 40 -9 -72 -536 -1819 -2774 -3304 -3402 -3672 -3965 -3969 -3853 -4026 -3834 -2764 -1427 -1293 -1380 -1981 -3407 -3990 -3635 -3024 -4275 -4594 -4577 -4661 -4697 -4650 -4600 -4601 -4431 -4141 -4003 -3875 -3555 -3497 -3107 -2972 -3069 -3538 -3667 -3340 -3794 -4199 -4527 -4514 -4537 -4614 -4604 -4638 -4272 -3173 -3781 -2807 -3352 -4999 -5047 -5068 -5045 -5055 -4905 -4736 -4299 -3675 -2916 -1627 -444 -197 181 755 881 958 1070 1165 1200 1346 1424 1507 1937 1655 1165 0 -1937 -2626 -2795 -2641 -2081 -2735 -5012 -4923 -4910 -4764 -4562 -3916 -2358 -2448 -2058 -2049 -2961 -4302 -4655 -4815 -4841 -4833 -4644 -4255 -4487 -4699 -4644 -4282 -3689 -3788 -4375 -4519 -4859 -4726 -4595 -4570 -4434 -4480 -4361 -4263 -4104 -4007 -3790 -3681 -3102 -3119 -3307 -3540 -3784 -4005 -4037 -4025 -4132 -4031 -4117 -3436 -2287 -2024 -2145 -2397 -2628 -2159 -1883 -1868 -2189 -2865 -3055 -2479 -2734 -3746 -4237 -4451 -4658 -5129 -4578 -5073 -5156 -5234 -5376 -5408 -5257 -5114 -4525 -1425 195 303 351 407 422 434 372 358 311 216 205 211 199 175 151 123 134 173 160 147 150 105 77 319 108 52 113 139 121 99 122 137 132 169 272 563 1009 362 -1643 -4489 -4540 -3855 -2999 -2947 -2089 -1404 -1370 -1280 -1516 -2707 -3057 -2912 -1770 -3318 -3279 -3165 -2417 -1750 -2260 -3479 -4006 -4015 -3980 -3612 -2148
-2516 -2427 -6547 -6293 -5701 -5533 -5724 -5140 -5526 -5626 -5582 -5518 -5478 -5387 -5469 -5506 -5324 -5330 -5349 -5323 -5264 -5455 -5454 -5355 -5309 -5303 -5278 -5253 -5237 -5028 -4900 -4917 -4922 -4937 -4970 -5001 -4999 -4885 -4688 -4526 -4402 -4391 -4279 -4344 -4267 -4324 -4240 -4087 -4186 -4211 -3774 -3659 -3957 -3967 -3931 -3822 -3816 -3749 -3721 -3675 -3635 -3575 -3483 -3448 -3403 -3200 -2887 -2686 -2620 -2852 -3045 -3114 -3255 -3326 -3412 -3497 -3577 -3615 -3626 -3625 -3628 -3641 -3643 -3653 -3769 -3696 -3638 -3602 -3507 -3494 -3645 -3655 -3754 -3818 -3955 -3915 -3875 -3970 -4000 -4026 -4092 -4183 -4198 -4299 -4311 -4154 -4034 -4590 0 3490 2575 977 729 583 739 829 205 115 65 44 51 59 80 218 173 177 250 100 -5 -41 -831 -2420 -3145 -3472 -3537 -3555 -3605 -3743 -3812 -3812 -4206 -3704 -3275 -2581 -1495 -1970 -1886 -2488 -3684 -3956 -3027 -3977 -4630 -4644 -4545 -4529 -4590 -4378 -4285 -4029 -4019 -3989 -3890 -3691 -3460 -3093 -2954 -3223 -3570 -3853 -4325 -4429 -4436 -4342 -4294 -4319 -4206 -4420 -4041 -3837 -4296 -4142 -3005 -4598 -4929 -5071 -5079 -4972 -4335 -4844 -4859 -4433 -3823 -3298 -2699 -1183 -325 -145 232 873 1134 1270 1376 1348 1506 1343 1534 1377 905 35 -2087 -3163 -3350 -3241 -2828 -2528 -3556 -5057 -4995 -5014 -4862 -4533 -3645 -2061 -2078 -1981 -2601 -3743 -4248 -4427 -4605 -4676 -4784 -4407 -4531 -4502 -4348 -3708 -3443 -3995 -4342 -4593 -4800 -4842 -4804 -4743 -4691 -4517 -4440 -4424 -4397 -4244 -4047 -3889 -3540 -3411 -3069 -2980 -3333 -3583 -3889 -4021 -3928 -3899 -3978 -3963 -3261 -1686 -1945 -3335 -4095 -4413 -4227 -3642 -2418 -1683 -2014 -2330 -2129 -2286 -2868 -3052 -4443 -5167 -5367 -4756 -5092 -5075 -5114 -5223 -5256 -5192 -5105 -4821 -2788 0 252 293 360 396 422 331 307 225 165 147 137 128 102 60 30 26 79 116 140 138 117 67 325 80 89 199 155 86 126 210 219 176 304 459 433 762 127 -2284 -4531 -4546 -4393 -3244 -3644 -1675 -1431 -1328 -1278 -1646 -2379 -3072 -1963 -1581 -2938 -3983 -3824 -3203 -1593 -2604 -3566 -3777 -4031 -3963 -3329 -2531
-2296 -3999 -7061 -5815 -5713 -5685 -5684 -5639 -5326 -5615 -5588 -5565 -5505 -5455 -5446 -5461 -5463 -5345 -5339 -5374 -5428 -5491 -5523 -5423 -5312 -5289 -5294 -5264 -5246 -5166 -5075 -5057 -5050 -5053 -5052 -5051 -5055 -5033 -4906 -4803 -4705 -4628 -4595 -4562 -4452 -4414 -4349 -4248 -4206 -4046 -4050 -3998 -3977 -3625 -4013 -3538 -3705 -3797 -3746 -3715 -3655 -3604 -3523 -3464 -3439 -3296 -3039 -2836 -2901 -3009 -3072 -3185 -3293 -3332 -3421 -3491 -3578 -3593 -3596 -3604 -3629 -3661 -3703 -3690 -3793 -3701 -3568 -3633 -3548 -3562 -3579 -3581 -3747 -3817 -3882 -3816 -3792 -3914 -3999 -4015 -4192 -4229 -4190 -4205 -4305 -4096 -3784 -4169 0 2793 2994 641 522 743 917 651 215 119 66 34 38 31 91 129 130 135 64 0 -15 -181 -1654 -2871 -3379 -3770 -3952 -4027 -3994 -4075 -4166 -4366 -4444 -4333 -4407 -3613 -2986 -3537 -3749 -3793 -4001 -3944 -3282 -3917 -4588 -4634 -4545 -4752 -4573 -4116 -4008 -3938 -3859 -3664 -3635 -3452 -3150 -2981 -2939 -3461 -3672 -3912 -4180 -4192 -4140 -4090 -4081 -4026 -3767 -3905 -3874 -3079 -4168 -3393 -3692 -4782 -4891 -5060 -5132 -4977 -4903 -4995 -4899 -4581 -4059 -3530 -3372 -2508 -821 -193 234 679 1197 961 945 934 871 1002 1045 700 0 -2241 -3314 -3615 -3669 -3353 -2168 -1628 -3200 -5055 -5063 -5107 -5016 -4629 -4025 -1723 -1214 -1604 -2675 -3078 -3644 -3844 -4055 -4362 -4666 -4788 -4192 -4070 -3762 -3657 -3887 -4462 -4614 -4708 -4763 -4878 -4813 -4707 -4650 -4472 -4507 -4546 -4451 -4182 -4272 -3948 -3704 -3314 -2873 -2702 -3206 -3552 -3664 -3773 -3649 -3469 -3164 -3486 -3059 -2144 -3077 -3738 -4041 -4264 -4421 -4401 -4381 -4167 -3458 -3204 -3412 -3117 -3250 -3149 -4554 -5235 -5416 -5166 -5046 -5172 -5105 -5042 -4667 -4858 -4668 -4128 -1727 -42 276 297 329 387 332 285 283 170 116 34 -22 -31 -52 -74 -79 -68 -55 -20 86 176 177 115 391 303 204 123 69 75 108 208 264 234 362 501 273 214 -152 -3550 -4623 -4611 -4133 -3175 -3789 -3139 -1542 -1286 -1011 -1637 -3034 -3088 -1323 -990 -1943 -3142 -3623 -2925 -1826 -2516 -3417 -3788 -3873 -3496 -2567 -3075
-2411 -5715 -6909 -5792 -5678 -5665 -5598 -5538 -4992 -5498 -5483 -5399 -5426 -5454 -5442 -5422 -5457 -5416 -5289 -5315 -5438 -5500 -5551 -5505 -5346 -5280 -5293 -5305 -5283 -5259 -5237 -5202 -5156 -5127 -5114 -5090 -5056 -5066 -4977 -4905 -4819 -4798 -4730 -4624 -4565 -4536 -4501 -4415 -4245 -3997 -3868 -4016 -4027 -4158 -4122 -3912 -3920 -4030 -3780 -3716 -3685 -3641 -3573 -3503 -3465 -3410 -3128 -2749 -2941 -3065 -3084 -3270 -3337 -3360 -3402 -3380 -3520 -3541 -3518 -3590 -3629 -3618 -3596 -3659 -3695 -3638 -3631 -3630 -3626 -3640 -3669 -3827 -3770 -3810 -3861 -3791 -3843 -3819 -3807 -3415 -3526 -3049 -3458 -3970 -4317 -4045 -4013 -3395 156 2301 2599 806 464 638 666 342 153 120 92 34 16 11 78 111 168 65 6 -24 -116 -675 -2063 -3125 -3661 -3977 -4088 -4213 -4349 -4471 -4572 -4656 -4718 -4586 -4593 -4427 -4008 -4200 -4139 -4039 -4007 -3172 -3188 -3957 -4406 -4608 -4372 -4216 -4004 -4023 -3999 -3998 -3998 -3860 -3754 -3531 -3230 -2982 -3145 -3502 -3878 -4015 -4082 -4067 -4055 -4201 -4180 -3998 -3458 -3650 -3536 -3890 -4598 -4503 -4204 -4794 -4873 -5129 -5200 -5147 -5123 -5054 -4921 -4783 -4522 -4292 -4102 -3643 -2262 -555 139 741 742 628 753 816 534 271 211 -492 -2630 -3600 -3782 -3829 -3546 -2595 -1917 -1761 -3656 -5162 -5147 -5182 -5059 -4869 -3963 -1714 -873 -1340 -2511 -3350 -3927 -4105 -4226 -4289 -4637 -4331 -4012 -3199 -3260 -3780 -4430 -4602 -5030 -4834 -4748 -4672 -4764 -4637 -4625 -4518 -4581 -4506 -4356 -4458 -4175 -4074 -3689 -3433 -3181 -2771 -3024 -3332 -3504 -3547 -3579 -3598 -3288 -3548 -3044 -2995 -3479 -3811 -4045 -4310 -4362 -4300 -4332 -4340 -4087 -4268 -4468 -4407 -4807 -4799 -4407 -5221 -5390 -5506 -5371 -5070 -5122 -4070 -2531 -3169 -3274 -2848 -578 77 266 308 311 285 189 147 153 85 -17 -119 -676 -793 -1198 -856 -706 -445 -147 -78 -17 89 179 31 382 153 72 50 63 76 89 133 208 237 518 837 337 0 -2436 -4514 -4640 -4560 -3858 -4030 -3485 -3307 -1876 -1540 -953 -1089 -2601 -3143 -2351 -1164 -1875 -1801 -1697 -1813 -1598 -1991 -2692 -3087 -3110 -3053 -2553 -2961
-3724 -6652 -5990 -5720 -5678 -5660 -5660 -5615 -5478 -4981 -5351 -5224 -5257 -5321 -5235 -5413 -5445 -5451 -5365 -5332 -5366 -5445 -5514 -5450 -5485 -5406 -5375 -5392 -5360 -5260 -5184 -5242 -5190 -5149 -5125 -5107 -5062 -5032 -5025 -4939 -4854 -4827 -4749 -4691 -4594 -4559 -4398 -3933 -3348 -3521 -3531 -3432 -3882 -3832 -3813 -4031 -4064 -4106 -3953 -3671 -3639 -3572 -3742 -3568 -3506 -3425 -3254 -2981 -3111 -3092 -3121 -3231 -3322 -3352 -3375 -3412 -3484 -3516 -3523 -3574 -3674 -3646 -3550 -3595 -3593 -3518 -3526 -3648 -3649 -3712 -3860 -3873 -3709 -3780 -3991 -3919 -3864 -3808 -3844 -3866 -3948 -4042 -4178 -4068 -4148 -4103 -4429 -1615 350 2726 2351 902 417 423 345 191 124 119 89 51 29 9 17 38 79 37 -27 -69 -1227 -2730 -3381 -3995 -4449 -4623 -4702 -4699 -4707 -4725 -4775 -4808 -4802 -4754 -4632 -4505 -4411 -4384 -4351 -4388 -4074 -3527 -3675 -4043 -3980 -3966 -4002 -4009 -3985 -3997 -3991 -3994 -3979 -3774 -3645 -3395 -3035 -3034 -3478 -3696 -3912 -4022 -4021 -4063 -4226 -4285 -3926 -3287 -3148 -4147 -3927 -4489 -4719 -4736 -4803 -4962 -5099 -5259 -5271 -5189 -5147 -5073 -5000 -4867 -4722 -4592 -4526 -4331 -3658 -1895 -231 113 47 24 -50 -62 -129 -713 -1828 -3478 -4026 -4136 -4185 -4031 -2952 -2360 -2616 -2793 -4600 -5201 -5241 -5134 -5016 -4951 -4306 -2484 -1683 -1745 -2661 -3620 -3972 -4010 -4178 -4182 -4228 -3563 -3427 -2942 -3125 -4212 -4611 -4995 -5045 -4908 -4693 -4529 -4539 -4499 -4547 -4598 -4505 -4250 -4207 -4262 -4149 -4155 -3790 -3654 -3377 -2874 -2759 -3126 -3485 -3238 -3570 -3628 -3637 -3616 -3234 -3630 -3988 -4048 -4121 -4200 -4238 -4247 -4375 -4482 -4475 -4455 -4414 -4459 -4566 -4535 -5170 -5105 -5435 -5517 -5456 -5371 -5124 -4472 -2535 -2463 -2727 -2807 -659 34 187 215 117 -315 -954 -1096 -862 -886 -2261 -3326 -4054 -4158 -4168 -3585 -2083 -1344 -883 -261 -70 21 -2 15 97 49 46 49 60 66 83 115 186 298 498 776 248 -1522 -4380 -4631 -4654 -4609 -4581 -4582 -4603 -3829 -2536 -2185 -1269 -1225 -1440 -2600 -2952 -1900 -1581 -1696 -1939 -1149 -208 -814 -1277 -1714 -2478 -2549 -2685 -2381
-4383 -6711 -5958 -5731 -5669 -5653 -5603 -5538 -5222 -4345 -5034 -5005 -5082 -5179 -5212 -5389 -5412 -5385 -5378 -5300 -5288 -5388 -5488 -5510 -5510 -5519 -5511 -5514 -5516 -5372 -5262 -5301 -5250 -5103 -5122 -5121 -5072 -5051 -5028 -4953 -4888 -4801 -4726 -4758 -4664 -4614 -4383 -4016 -4250 -4191 -4030 -4083 -4197 -3700 -3867 -4026 -4052 -4145 -4187 -3857 -3801 -3690 -3756 -3727 -3557 -3444 -3168 -3239 -3034 -2953 -3160 -3358 -3481 -3498 -3450 -3456 -3508 -3537 -3388 -3460 -3487 -3523 -3500 -3448 -3570 -3531 -3509 -3597 -3794 -3840 -3932 -4000 -3797 -3725 -3980 -3970 -3879 -3805 -3841 -4020 -4003 -4006 -4032 -3983 -4139 -4406 -3052 0 552 2478 1677 1403 436 365 311 167 119 95 86 58 30 30 12 -7 -25 -43 -56 -864 -2539 -3569 -4237 -4668 -4805 -4850 -4876 -4932 -4976 -4984 -4959 -4931 -4933 -4917 -4800 -4678 -4574 -4385 -4328 -4493 -4435 -4298 -4055 -4191 -3996 -4002 -3998 -4000 -3934 -3839 -3603 -3712 -3844 -3774 -3116 -2991 -3334 -3574 -3658 -3982 -4012 -4037 -4002 -3986 -3968 -3825 -3401 -3341 -4303 -4388 -4661 -4792 -4842 -4927 -5046 -5168 -5210 -5216 -5141 -5047 -5092 -5094 -5044 -4956 -4859 -4785 -4738 -4620 -4154 -3387 -2088 -300 -62 -57 -495 -1507 -2511 -4026 -4406 -4464 -4460 -4485 -4483 -4229 -3877 -3571 -3409 -3897 -5206 -5404 -5287 -5132 -5056 -4886 -4355 -3260 -2786 -2904 -3281 -3785 -3985 -3886 -3950 -3850 -3859 -3103 -3441 -3302 -3909 -4428 -4842 -5050 -4870 -4932 -4735 -4460 -4387 -4459 -4456 -4443 -4459 -4323 -4339 -4368 -4325 -4119 -3945 -3805 -3223 -3023 -2926 -3055 -2896 -3059 -3665 -3670 -3729 -3742 -3750 -3865 -3934 -3979 -3999 -3999 -4043 -4199 -4407 -4503 -4515 -4497 -4475 -4420 -4494 -4592 -4778 -5122 -5128 -5332 -5151 -5351 -5430 -5160 -4762 -4789 -4929 -5000 -3862 -2864 -2083 -1472 -2244 -3914 -4656 -4759 -4691 -4709 -4970 -5103 -5266 -5378 -5398 -5236 -4698 -3491 -2376 -1871 -1483 -412 -26 9 48 32 92 74 68 74 84 110 171 385 786 623 -338 -3768 -4612 -4645 -4556 -4540 -4676 -4613 -4720 -4616 -3450 -2952 -2203 -1565 -1300 -1451 -2317 -2688 -2459 -1800 -1758 -1691 -847 0 -85 -704 -1858 -2387 -2500 -2558
-4628 -4729 -5262 -5536 -5594 -5617 -5607 -5585 -5583 -5160 -4966 -4954 -4847 -4976 -5126 -5289 -5376 -5290 -5240 -5205 -5264 -5266 -5394 -5520 -5519 -5517 -5518 -5517 -5526 -5501 -5410 -5353 -5263 -5195 -5176 -5143 -5118 -5095 -5054 -4997 -4942 -4900 -4844 -4771 -4679 -4604 -4577 -4486 -4470 -4457 -4428 -4445 -4509 -4542 -4060 -4054 -4069 -4138 -4255 -4259 -4204 -4063 -4079 -4043 -3736 -3482 -3145 -3196 -2999 -2924 -3123 -3401 -3528 -3675 -3727 -3841 -3951 -3831 -3542 -3479 -3471 -3332 -3290 -3291 -3108 -3186 -3246 -3538 -3700 -3819 -3936 -4000 -3945 -3959 -4014 -3999 -3981 -3811 -3912 -3998 -3990 -3992 -4044 -4027 -4024 -4309 0 146 1266 2196 1644 1163 538 353 313 196 120 106 109 111 68 33 1 -13 -45 -80 -729 -2532 -3563 -4251 -4682 -4862 -4934 -4991 -5012 -4997 -5001 -5001 -4993 -4983 -4991 -4987 -4945 -4849 -4787 -4579 -4601 -4424 -4309 -4540 -4391 -4391 -4357 -4302 -4173 -4033 -3999 -4002 -3941 -3836 -3689 -3271 -3035 -3016 -3240 -3406 -3598 -3654 -4000 -4051 -3938 -3746 -3594 -4011 -4148 -4066 -4420 -4721 -4989 -5000 -4980 -5066 -5106 -5130 -5114 -5151 -5139 -4805 -4882 -5044 -5050 -4988 -4950 -4926 -4762 -4736 -4527 -4198 -3696 -2681 -381 -686 -1898 -3415 -4548 -4009 -3798 -4220 -4491 -4535 -4464 -4180 -4037 -3834 -3667 -4871 -5586 -5441 -5128 -4901 -4743 -4930 -4543 -3634 -2681 -3153 -3686 -3715 -3597 -3369 -3267 -3066 -2962 -3414 -3632 -3945 -4247 -4695 -5023 -5001 -5026 -4964 -4800 -4639 -4496 -4474 -4477 -4444 -4416 -4342 -4355 -4492 -4275 -4052 -4047 -3724 -3471 -3133 -2586 -2478 -2599 -3464 -3650 -3721 -3798 -3827 -3811 -3816 -3814 -3824 -3898 -4069 -3922 -4049 -4235 -4379 -4436 -4491 -4483 -4459 -4514 -4659 -4702 -4724 -4762 -4706 -5212 -5278 -5234 -5066 -5026 -5166 -5377 -5385 -5080 -5020 -4940 -4785 -4866 -5086 -5312 -5501 -5624 -5576 -5551 -5604 -5643 -5648 -5646 -5640 -5632 -5593 -5422 -5018 -4755 -3708 -1273 -207 -16 -20 75 134 131 150 129 167 308 640 1048 472 -2130 -4590 -4633 -4671 -4688 -4725 -4202 -4856 -4779 -4912 -4386 -3543 -2915 -2321 -1466 -1341 -1507 -1785 -2096 -2279 -2141 -1831 -1635 -882 0 -29 -1151 -2369 -2398 -2589
-3894 -3641 -4164 -5104 -5331 -5386 -5332 -5378 -5261 -5228 -4822 -4473 -4707 -5162 -5238 -5281 -5361 -5335 -5211 -4956 -5037 -5191 -5281 -5425 -5482 -5479 -5461 -5455 -5495 -5516 -5508 -5412 -5325 -5288 -5248 -5211 -5185 -5160 -5138 -5076 -5030 -5005 -4975 -4867 -4776 -4779 -4804 -4602 -4574 -4591 -4524 -4649 -4707 -4637 -4501 -4256 -4155 -4170 -4264 -4152 -4254 -4234 -4205 -3991 -3730 -3423 -3304 -3199 -2883 -2800 -3096 -3327 -3503 -3664 -3886 -4052 -4131 -4129 -4037 -3900 -3831 -3543 -3491 -3452 -3325 -3124 -3143 -3416 -3541 -3635 -3739 -3857 -3973 -3973 -3991 -3958 -3938 -3986 -3989 -4007 -4022 -4010 -4140 -4117 -4092 -3696 0 246 1568 1476 974 705 419 304 287 211 155 254 222 200 187 95 13 -32 -62 -535 -2044 -3645 -4260 -4788 -5000 -5078 -5096 -5103 -5084 -5045 -5032 -5028 -5024 -5017 -5001 -4996 -5005 -4864 -4897 -4774 -4671 -4601 -4543 -4113 -4003 -4389 -4649 -4562 -4357 -4037 -3999 -4000 -3950 -3791 -3727 -3355 -3041 -2970 -2996 -2985 -3043 -2924 -3618 -3624 -3577 -3403 -3628 -3543 -3623 -3816 -4033 -4063 -4733 -4977 -5027 -5060 -5099 -5118 -5149 -5218 -5308 -5188 -5050 -5047 -5068 -5148 -5152 -5087 -4891 -4677 -4518 -4467 -3995 -4109 -3506 -4096 -4393 -5318 -4394 -3330 -3024 -3357 -3943 -4285 -4276 -4146 -4099 -3909 -4108 -5313 -5499 -5339 -4958 -4696 -4641 -4473 -4129 -3208 -2886 -3613 -3653 -3010 -2786 -2661 -2269 -2573 -3362 -3613 -3910 -4354 -4485 -4979 -5085 -5176 -5179 -5128 -5012 -4897 -4659 -4514 -4520 -4436 -4375 -4309 -4318 -4390 -4174 -4091 -4051 -3709 -3366 -2534 -1777 -2234 -3414 -3577 -3628 -3615 -3656 -3688 -3717 -3798 -3738 -3742 -3878 -3985 -3854 -3912 -4042 -4115 -4178 -4322 -4364 -4390 -4530 -4667 -4677 -4703 -4810 -4913 -4880 -4951 -4762 -4779 -4850 -4961 -4998 -4829 -4954 -4981 -5024 -4972 -4952 -5012 -5260 -5554 -5785 -5782 -5742 -5673 -5669 -5662 -5652 -5654 -5653 -5644 -5634 -5629 -5609 -5481 -5317 -4251 -2009 -484 42 166 253 338 302 396 850 548 353 105 -2638 -4562 -4633 -4662 -4649 -4613 -4790 -4962 -5029 -5033 -5026 -4696 -3650 -2507 -1494 -1484 -1545 -1027 -1024 -1406 -1787 -1754 -1609 -1306 -59 51 -302 -734 -893 -2249
-3543 -3427 -3706 -4492 -4839 -5145 -5142 -5075 -4879 -4772 -4885 -3950 -3565 -5185 -5201 -5203 -5160 -5267 -5234 -4933 -4551 -4767 -4965 -5075 -5144 -5199 -5235 -5197 -5302 -5362 -5422 -5456 -5415 -5356 -5310 -5285 -5265 -5250 -5240 -5235 -5287 -5159 -5072 -5019 -4996 -5001 -4973 -4876 -4829 -4768 -4776 -4823 -4791 -4726 -4570 -4507 -4515 -4462 -4356 -4300 -4264 -4255 -4223 -3911 -3679 -3372 -3271 -3106 -2846 -2872 -3107 -3313 -3505 -3641 -3848 -3925 -4005 -4118 -4205 -4191 -4131 -4036 -3869 -3605 -3500 -3298 -3259 -3208 -3449 -3530 -3553 -3638 -3782 -3825 -3957 -3993 -3993 -3944 -3947 -3952 -4173 -4093 -4100 -4038 -4119 -3111 0 295 1392 1172 670 439 320 251 189 131 109 131 154 91 47 17 -35 -54 -161 -932 -3085 -4362 -4846 -5160 -5252 -5238 -5211 -5183 -5129 -5087 -5086 -5088 -5082 -5069 -5002 -4990 -5065 -4848 -4942 -5021 -4882 -4786 -4568 -4590 -4368 -3942 -4178 -4141 -4214 -3973 -4000 -3999 -3960 -3878 -3633 -3424 -2921 -2879 -2926 -3001 -2997 -2993 -2930 -2912 -3172 -3155 -3287 -3389 -3764 -4091 -4557 -4734 -5004 -5011 -5032 -5097 -5175 -5231 -5327 -5367 -5344 -5308 -5288 -5232 -5292 -5269 -5140 -4325 -4335 -4662 -4759 -4770 -4807 -4775 -4914 -4970 -5062 -5055 -4463 -3355 -2992 -3216 -4084 -4151 -4192 -4093 -4185 -3898 -4531 -5303 -5441 -5040 -4961 -4746 -4250 -3893 -3700 -2575 -3393 -3278 -3092 -2366 -2524 -2489 -2922 -3302 -3731 -4089 -4202 -4507 -4735 -5111 -5151 -5285 -5345 -5326 -5228 -5084 -4787 -4605 -4490 -4442 -4366 -4325 -4259 -4303 -4253 -4194 -3944 -3695 -3148 -1779 -1794 -2645 -3452 -3520 -3522 -3511 -3579 -3608 -3639 -3763 -3692 -3633 -3678 -3691 -3733 -3793 -3896 -3966 -4073 -4130 -4204 -4327 -4468 -4568 -4536 -4543 -4626 -4717 -4708 -4661 -4461 -4184 -4431 -4547 -4601 -4490 -4772 -4799 -4893 -5089 -5047 -5020 -5160 -5309 -5459 -5571 -5576 -5609 -5631 -5616 -5598 -5619 -5642 -5650 -5643 -5638 -5630 -5602 -5600 -5539 -4725 -3358 -1532 -359 28 113 0 56 110 -22 -489 -1773 -4027 -4594 -4648 -4666 -4602 -4661 -4750 -4898 -4946 -4942 -4921 -4817 -4568 -3664 -2174 -1960 -2214 -856 -454 -530 -985 -1401 -1027 -386 27 345 375 294 -567 -3198
-3460 -3649 -3983 -4152 -4550 -4780 -4856 -4806 -4728 -4646 -4674 -4706 -4084 -4543 -5015 -5059 -5066 -5244 -5210 -5140 -4729 -4631 -4750 -4852 -4979 -4994 -5034 -5086 -5199 -5237 -5356 -5441 -5460 -5438 -5373 -5334 -5321 -5306 -5271 -5211 -5175 -5077 -5129 -5143 -5077 -5010 -5000 -4999 -4975 -4885 -4788 -4733 -4660 -4501 -4477 -4520 -4526 -4528 -4458 -4427 -4324 -4266 -4078 -3815 -3612 -3388 -3235 -3066 -2804 -2955 -3213 -3402 -3509 -3656 -3794 -3873 -3955 -4110 -4205 -4259 -4333 -4412 -3747 -3548 -3551 -3494 -3349 -3271 -3301 -3364 -3491 -3511 -3687 -3838 -4048 -4189 -4011 -3928 -3934 -3977 -4203 -4137 -4060 -3989 -4150 -2233 0 433 1229 1043 610 584 314 191 131 77 43 0 -12 -26 -38 -50 -56 -29 -537 -1966 -4217 -4912 -5192 -5372 -5399 -5386 -5296 -5207 -5152 -5126 -5143 -5153 -5150 -5138 -5112 -5134 -5134 -4991 -4851 -4974 -4994 -4893 -4648 -4536 -4554 -4445 -4533 -4427 -4249 -4021 -4000 -3997 -3910 -3806 -3528 -3380 -3165 -2986 -2813 -3122 -3289 -3249 -3224 -3266 -3411 -3348 -3262 -2313 -3111 -4167 -4719 -4689 -4843 -4999 -5035 -5086 -5084 -5091 -5158 -5315 -5370 -5314 -5326 -5360 -5248 -4970 -4666 -3800 -4780 -4768 -4774 -4975 -4950 -4961 -5037 -5046 -5049 -4991 -3676 -2701 -2575 -3135 -4067 -4247 -4447 -4066 -4101 -4075 -4958 -5363 -5259 -4917 -4918 -4550 -3952 -3619 -2921 -2629 -3133 -2759 -2615 -2635 -3143 -3383 -3672 -3944 -3851 -4152 -4259 -4583 -4903 -5026 -5117 -5284 -5412 -5347 -5090 -5012 -4827 -4591 -4483 -4444 -4326 -4303 -4249 -4175 -4120 -4070 -3966 -3643 -3259 -2186 -2361 -3125 -3291 -3372 -3388 -3483 -3455 -3469 -3611 -3642 -3439 -3475 -3465 -3426 -3539 -3612 -3694 -3784 -3920 -4050 -4168 -4261 -4342 -4394 -4430 -4503 -4497 -4545 -4582 -4497 -4500 -4543 -4575 -4559 -4562 -4607 -4717 -4769 -4844 -4934 -5010 -5062 -5032 -5100 -5265 -5421 -5420 -5453 -5456 -5424 -5535 -5602 -5632 -5629 -5632 -5587 -5627 -5621 -5551 -5520 -5442 -5049 -4262 -3169 -1394 -42 -46 -67 -45 -37 -279 -3250 -4523 -4617 -4647 -4575 -4442 -4785 -4662 -4778 -4807 -4824 -4802 -4732 -4510 -3077 -2692 -2608 -2687 -1055 -601 -551 -723 -687 -215 16 148 640 357 -206 -1733 -3211
-3012 -3271 -3747 -4038 -4254 -4317 -4476 -4526 -4524 -4493 -4553 -4695 -4845 -5004 -3816 -4892 -5137 -5209 -5235 -5212 -5093 -4936 -4924 -4983 -5037 -5051 -5049 -5061 -5128 -5178 -5296 -5425 -5459 -5467 -5459 -5401 -5368 -5334 -5299 -5279 -5316 -5277 -5126 -5195 -5066 -4984 -4987 -4990 -5009 -4815 -4765 -4724 -4690 -4463 -4495 -4465 -4385 -4398 -4429 -4517 -4500 -4272 -3984 -3784 -3529 -3332 -3185 -2950 -2859 -2980 -3163 -3386 -3484 -3644 -3740 -3826 -3931 -4057 -4158 -4248 -4334 -4379 -4042 -3787 -3661 -3567 -3468 -3195 -3208 -3329 -3424 -3457 -3678 -3790 -3943 -4055 -3957 -3974 -3986 -4071 -4250 -4056 -3960 -3875 -3996 -1587 68 587 1237 921 1129 915 588 270 99 54 40 7 -26 -44 -12 -14 -77 -434 -1734 -3851 -4990 -5360 -5465 -5459 -5379 -5392 -5284 -5189 -5148 -5156 -5190 -5198 -5201 -5196 -5196 -5201 -5243 -5159 -4908 -5004 -5007 -5060 -4699 -4574 -4521 -4572 -4561 -4426 -4161 -4000 -3999 -3986 -3911 -3752 -3536 -3299 -3109 -2997 -3179 -3405 -3465 -3250 -3395 -3458 -3295 -3378 -3806 -3841 -4072 -4285 -4548 -4642 -4913 -4919 -4850 -4837 -4823 -4873 -5002 -5168 -5240 -5198 -5087 -4875 -4786 -4393 -4709 -4090 -3310 -4418 -4863 -4962 -4995 -5060 -5001 -5027 -5032 -4659 -3527 -2634 -2544 -2647 -3565 -4434 -4697 -4492 -3988 -4589 -5019 -4968 -4848 -4588 -4384 -3949 -3441 -2732 -2058 -2475 -2797 -2794 -3124 -3315 -3491 -3804 -3748 -3898 -4213 -3988 -4333 -4590 -4813 -4937 -5047 -5204 -5296 -5279 -5172 -5059 -4929 -4590 -4557 -4445 -4301 -4255 -4218 -4141 -4067 -4004 -3900 -3552 -3046 -2621 -2534 -2949 -3087 -3062 -3144 -3215 -3172 -3294 -3255 -3036 -3096 -3120 -3145 -3220 -3315 -3399 -3512 -3618 -3748 -3892 -4058 -4089 -4041 -4152 -4231 -4280 -4362 -4237 -4311 -4476 -4492 -4530 -4516 -4334 -4458 -4524 -4573 -4574 -4681 -4813 -4883 -4893 -4946 -5045 -5156 -5249 -5276 -5306 -5285 -5294 -5373 -5581 -5620 -5593 -5565 -5461 -5492 -5413 -5255 -5181 -5190 -5341 -5070 -4576 -3355 -705 -25 -41 -75 -35 -195 -3626 -4534 -4635 -4647 -4632 -4710 -4740 -4583 -4678 -4724 -4736 -4724 -4691 -4580 -4066 -3732 -3909 -2878 -1125 -923 -747 -650 -379 -19 -8 -31 222 0 -1598 -2810 -3004
-2700 -2723 -2981 -3239 -3007 -3136 -3318 -3600 -3904 -4028 -4389 -4476 -4710 -4926 -4956 -4231 -5081 -5177 -5194 -5210 -5200 -5183 -5125 -5097 -5070 -5033 -5082 -5103 -5132 -5159 -5237 -5397 -5460 -5475 -5478 -5475 -5415 -5287 -5292 -5308 -5311 -5282 -5183 -5104 -5093 -5044 -5061 -5104 -5054 -4980 -4881 -4790 -4720 -4645 -4540 -4473 -4360 -4265 -4205 -4236 -4221 -4034 -3879 -3730 -3475 -3261 -3116 -2921 -2784 -2983 -3168 -3386 -3492 -3552 -3638 -3788 -3897 -4024 -4164 -4263 -4380 -4342 -4165 -4026 -3968 -3836 -3738 -3633 -3618 -3605 -3343 -3411 -3749 -3632 -3579 -3397 -3607 -3715 -3721 -3624 -3674 -3685 -3736 -3737 -3594 -779 42 706 1257 1149 1180 1068 822 541 112 -90 -34 -31 -49 -36 -10 -11 -347 -1610 -3872 -4840 -5350 -5544 -5547 -5494 -5607 -5494 -5260 -5120 -5080 -5116 -5182 -5199 -5203 -5206 -5205 -5199 -5234 -5233 -5007 -5004 -5015 -4881 -4729 -4762 -4587 -4599 -4580 -4495 -4260 -4034 -4000 -3944 -3830 -3672 -3596 -3549 -3115 -2858 -3000 -3082 -3302 -3510 -3640 -4149 -4092 -4014 -4000 -4148 -4440 -4578 -4568 -4641 -4640 -4057 -3481 -3486 -4533 -4789 -5047 -5148 -5091 -4963 -4769 -4704 -4680 -4244 -3952 -4037 -4594 -4991 -4847 -5071 -4999 -5005 -5009 -5016 -4997 -4595 -3541 -2996 -3067 -3104 -4052 -4761 -4953 -4873 -4892 -5093 -4891 -4534 -4463 -4058 -3707 -3353 -2794 -2152 -2635 -2705 -3067 -3365 -3248 -3225 -3218 -3376 -3348 -3749 -3500 -3987 -4299 -4577 -4717 -4837 -4968 -5017 -4976 -5110 -5131 -5042 -4943 -4693 -4518 -4418 -4309 -4209 -4138 -4047 -3994 -3944 -3732 -3357 -3126 -2996 -2903 -2761 -2813 -2838 -2869 -2911 -2904 -2954 -2817 -2774 -2796 -2838 -2959 -3126 -3195 -3227 -3328 -3464 -3580 -3671 -3842 -3940 -3988 -4071 -4154 -4170 -4104 -4179 -4156 -4339 -4386 -4468 -4453 -4443 -4485 -4498 -4498 -4511 -4610 -4674 -4752 -4794 -4805 -4921 -4972 -5013 -5086 -5130 -5108 -5254 -5202 -5400 -5486 -5366 -5244 -5210 -5228 -5197 -5075 -4938 -5036 -5173 -5287 -5002 -4415 -3122 -486 430 291 261 -436 -3770 -4556 -4577 -4550 -4630 -4583 -4559 -4682 -4751 -4734 -4752 -4833 -4831 -4664 -4538 -4562 -4312 -3325 -1582 -1195 -951 -550 -80 530 233 0 0 -1657 -2731 -2897 -2708
-1898 -1885 -1855 -2037 -2158 -2254 -2325 -1986 -2170 -2551 -3112 -3520 -4683 -5021 -5072 -5134 -5200 -5211 -5192 -5218 -5208 -5180 -5118 -5098 -5116 -5095 -5123 -5149 -5177 -5167 -5203 -5373 -5395 -5455 -5452 -5474 -5440 -5402 -5368 -5430 -5377 -5323 -5216 -5171 -5176 -5110 -5111 -5096 -5053 -4984 -4902 -4796 -4727 -4641 -4565 -4418 -4318 -4201 -4066 -4082 -3998 -3912 -3844 -3705 -3471 -3278 -3114 -2917 -2742 -3009 -3168 -3271 -3398 -3499 -3607 -3803 -3881 -3967 -4157 -4283 -4349 -4337 -4170 -4261 -4292 -4221 -4144 -4072 -3886 -3696 -3672 -3787 -3566 -3522 -3465 -3250 -3123 -3419 -3549 -3522 -3502 -3512 -3557 -3597 -3200 -222 23 804 1019 834 999 1057 598 286 119 0 -27 -73 -98 -63 -34 -431 -1661 -3222 -4728 -5274 -5534 -5675 -5660 -5629 -5687 -5525 -5284 -5100 -5019 -5046 -5152 -5202 -5193 -5196 -5200 -5198 -5233 -5229 -5119 -5003 -5079 -4945 -4663 -4530 -4560 -4603 -4598 -4591 -4491 -4383 -4317 -4013 -3867 -3789 -3671 -3386 -2998 -2859 -2937 -2999 -3286 -3588 -3627 -3831 -3968 -3989 -3907 -4310 -4478 -4539 -4408 -4193 -3303 -3035 -2657 -2965 -4073 -4641 -4726 -4762 -4836 -4722 -4592 -4557 -4651 -4449 -4645 -4598 -4800 -4921 -4999 -4999 -4999 -4999 -5016 -4968 -4536 -3920 -3901 -4190 -4451 -4391 -4724 -5142 -5164 -5107 -5110 -4684 -4917 -4403 -4088 -3479 -2986 -2745 -2617 -2300 -2775 -3226 -3291 -3359 -2997 -3054 -3139 -3070 -3165 -3485 -3592 -3700 -4093 -4347 -4535 -4719 -4886 -4977 -4933 -5085 -5077 -5002 -4946 -4792 -4487 -4336 -4228 -4130 -4064 -3968 -3946 -3820 -3023 -3134 -3193 -3098 -3076 -3009 -2936 -2855 -2826 -2828 -2825 -2806 -2855 -2890 -2853 -2815 -2769 -2959 -3015 -3098 -3185 -3260 -3430 -3539 -3657 -3734 -3908 -4030 -4050 -4011 -4025 -4023 -4077 -4148 -4278 -4363 -4359 -4334 -4386 -4454 -4464 -4509 -4586 -4614 -4638 -4726 -4754 -4817 -4886 -4865 -4875 -4946 -4982 -5192 -5094 -5136 -5202 -5185 -5135 -5175 -5136 -5084 -5018 -4921 -4860 -4838 -4973 -4913 -4775 -4336 -2122 247 579 225 -820 -3393 -4283 -4511 -4590 -4637 -4608 -4507 -4686 -4737 -4705 -4832 -4958 -4904 -4692 -4268 -4002 -4301 -3779 -2274 -1452 -1042 -337 300 660 56 -1445 -1927 -1863 -1955 -1923 -1822
-505 -414 -316 -236 -467 -794 -1584 -2031 -2327 -3489 -4143 -4448 -5141 -5361 -5251 -5162 -5180 -5084 -4150 -4970 -5258 -5180 -5155 -5130 -5168 -5119 -5164 -5161 -5197 -5208 -5199 -5222 -5296 -5352 -5341 -5313 -5360 -5403 -5401 -5409 -5412 -5341 -5262 -5228 -5102 -5147 -5113 -5093 -5014 -4931 -4890 -4759 -4773 -4660 -4568 -4404 -4298 -4121 -3771 -3888 -3887 -3851 -3829 -3699 -3482 -3306 -3093 -2930 -2814 -3038 -3189 -3225 -3377 -3441 -3601 -3743 -3833 -3901 -4004 -4263 -4230 -4199 -4108 -4243 -4212 -4282 -4232 -4220 -4174 -3927 -3829 -3860 -3629 -3751 -3567 -3496 -3296 -3042 -3251 -3470 -3559 -3533 -3483 -3507 -2590 -37 2 835 910 1077 759 492 307 257 95 -39 -84 -117 -141 -107 -399 -1830 -3111 -4532 -5192 -5491 -5659 -5795 -5733 -5525 -5357 -5311 -5212 -5081 -5009 -5005 -5083 -5129 -5112 -5135 -5161 -5219 -5345 -5284 -5191 -5133 -5146 -5129 -4875 -4826 -4711 -4690 -4675 -4730 -4693 -4611 -4557 -4133 -3794 -3695 -3724 -3642 -3296 -3098 -3153 -3287 -3555 -3806 -3975 -4000 -3997 -4002 -4002 -4123 -4187 -4186 -4076 -4069 -4102 -4230 -4349 -4441 -4266 -4516 -4604 -4611 -4535 -3898 -3977 -4611 -4625 -4621 -4748 -4775 -4850 -4746 -4880 -4981 -5001 -4988 -5023 -4741 -4557 -4719 -4982 -5135 -5131 -5079 -5372 -5523 -5493 -5440 -4802 -4574 -4152 -4034 -3219 -2832 -2498 -2232 -2244 -2418 -2993 -3067 -2845 -2769 -2698 -2617 -2563 -2584 -2914 -3228 -3506 -3661 -3953 -4273 -4550 -4691 -4798 -4905 -4983 -5029 -5062 -4972 -4721 -4548 -4449 -4292 -4153 -4020 -4003 -3938 -3827 -3329 -2472 -3407 -3277 -3169 -3260 -3122 -3110 -3137 -3136 -3110 -3090 -3061 -3035 -3057 -3107 -3061 -2987 -2923 -2873 -2920 -3041 -3159 -3254 -3440 -3483 -3589 -3720 -3838 -3912 -3908 -3915 -3975 -4017 -4082 -4132 -4277 -4278 -4260 -4272 -4365 -4368 -4500 -4483 -4469 -4605 -4566 -4576 -4731 -4795 -4753 -4736 -4787 -4837 -5097 -5067 -5112 -5078 -5046 -5013 -5005 -4949 -4840 -4745 -4767 -4816 -4750 -4693 -4708 -4814 -4649 -3432 -1191 149 -97 -2479 -3207 -2968 -4050 -4534 -4604 -4603 -4597 -4730 -4715 -4814 -4932 -5002 -4867 -4664 -4521 -4020 -4284 -4013 -2594 -1190 0 617 464 103 -232 -597 -284 -343 -286 -342 -482
-1017 -930 -830 -509 -1106 -2000 -2923 -3827 -4151 -4792 -5143 -5344 -5406 -5415 -5383 -5134 -5102 -5093 -4941 -5001 -5090 -5080 -5157 -5070 -5086 -5133 -5188 -5179 -5160 -5153 -5183 -5205 -5197 -5209 -5086 -5185 -5320 -5440 -5447 -5446 -5446 -5527 -5441 -5282 -5160 -5072 -5077 -5018 -4944 -4894 -4854 -4762 -4702 -4627 -4547 -4411 -4316 -4228 -4022 -3969 -3866 -3820 -3728 -3573 -3410 -3230 -3030 -2837 -2882 -3061 -3179 -3196 -3353 -3478 -3539 -3673 -3798 -3882 -3962 -4060 -3963 -4134 -4220 -4193 -4293 -4273 -4263 -4237 -4223 -4108 -3986 -3946 -3828 -3717 -3533 -3478 -3274 -3116 -3193 -3392 -3470 -3341 -3162 -3254 -1766 -23 179 883 770 725 791 592 339 285 63 -85 -103 -94 -47 -38 -1069 -2138 -3628 -4935 -5440 -5601 -5783 -5896 -5811 -5660 -5392 -5213 -5133 -5084 -4993 -4925 -5014 -5012 -5001 -5008 -5024 -5207 -5384 -5348 -5303 -5328 -5280 -5302 -5094 -4909 -4828 -4808 -4888 -4937 -4790 -4650 -4569 -4236 -4003 -4001 -3990 -3777 -3374 -3214 -3212 -3435 -3685 -3825 -3878 -3924 -3975 -3878 -3867 -3765 -3746 -3973 -4068 -4099 -4128 -4217 -4500 -4562 -4564 -4578 -4582 -4464 -4203 -4516 -4726 -4646 -4596 -4736 -4907 -4744 -4779 -4968 -4941 -4716 -4801 -4629 -4549 -4718 -4925 -5073 -5121 -5273 -5451 -5522 -5548 -5533 -5376 -4957 -4521 -4201 -3719 -3061 -2211 -2156 -2298 -2526 -2229 -2553 -2317 -2327 -1796 -1829 -2080 -2526 -2929 -2956 -2992 -3201 -3414 -3597 -3876 -4199 -4435 -4569 -4657 -4775 -4857 -4869 -4879 -4818 -4642 -4398 -4407 -4237 -4090 -4008 -3910 -3730 -3626 -3651 -3616 -3452 -3240 -3163 -3164 -3191 -3236 -3280 -3299 -3299 -3286 -3288 -3342 -3395 -3367 -3317 -3228 -3089 -3003 -2897 -2939 -3067 -3222 -3224 -3411 -3566 -3643 -3686 -3715 -3755 -3799 -3859 -3962 -4007 -4090 -4101 -4093 -4140 -4240 -4345 -4379 -4428 -4418 -4340 -4364 -4464 -4647 -4683 -4666 -4644 -4594 -4655 -4833 -4890 -5121 -5056 -4923 -4873 -4837 -4804 -4663 -4603 -4644 -4648 -4621 -4738 -4746 -4542 -4684 -4725 -3996 -3055 -2071 -2291 -3739 -3285 -2934 -4150 -4555 -4622 -4642 -4696 -4780 -4900 -4995 -5018 -4964 -4774 -4687 -4661 -4631 -4487 -3835 -2069 344 634 489 8 -150 -550 -777 -663 -879 -1193 -1331 -1230
-2664 -3126 -3123 -3415 -3888 -4180 -4580 -4950 -4995 -5021 -5156 -5334 -5407 -5398 -5247 -5100 -5077 -5083 -5092 -5091 -5061 -4850 -4474 -4660 -4665 -5032 -5073 -5120 -5171 -5120 -5048 -5011 -5014 -4998 -5116 -5238 -5356 -5287 -5220 -5194 -5250 -5377 -5348 -5196 -5078 -5111 -5019 -4966 -4900 -4869 -4790 -4686 -4627 -4543 -4437 -4299 -4219 -4191 -4045 -3847 -3817 -3674 -3589 -3437 -3325 -3141 -2932 -2779 -2958 -3072 -3212 -3293 -3393 -3482 -3547 -3663 -3751 -3903 -3995 -4104 -4226 -4245 -4251 -4260 -4282 -4294 -4291 -4274 -4257 -4205 -4084 -4003 -3993 -3984 -4098 -3854 -3633 -3579 -3507 -3461 -3125 -2849 -2893 -3096 -1338 24 386 831 879 583 515 450 240 -43 -80 -101 -93 -36 -10 -31 -1041 -2347 -3822 -5178 -5481 -5743 -5913 -6010 -5963 -5840 -5649 -5470 -5354 -5238 -5143 -4996 -5142 -5248 -5279 -5217 -5099 -5190 -5353 -5496 -5546 -5540 -5385 -5238 -5173 -5038 -4933 -4919 -4969 -4958 -4793 -4602 -4501 -4054 -3996 -3999 -3972 -3832 -3629 -3327 -3159 -3025 -3298 -3379 -3283 -3122 -3127 -3099 -3396 -3500 -3779 -3996 -4054 -4173 -4441 -4379 -3978 -4600 -4600 -4622 -4851 -4428 -4698 -4798 -4702 -4667 -4822 -4839 -4935 -4818 -4820 -4895 -4741 -4746 -4422 -4102 -4584 -4888 -5013 -5186 -5298 -5459 -5503 -5516 -5645 -5320 -5080 -4701 -4142 -3757 -2798 -2602 -2327 -2355 -2429 -2097 -1828 -1530 -1233 -1652 -1662 -1681 -1591 -2239 -2845 -1599 -1255 -2389 -3135 -3447 -3795 -4121 -4265 -4420 -4569 -4683 -4720 -4684 -4558 -4419 -4540 -4291 -3805 -3287 -3109 -3484 -3559 -3187 -3514 -3549 -3537 -3507 -3369 -3176 -3208 -3259 -3316 -3368 -3392 -3402 -3379 -3372 -3459 -3516 -3511 -3475 -3370 -3262 -3195 -3108 -3013 -2947 -3067 -3144 -3233 -3378 -3460 -3493 -3527 -3581 -3647 -3749 -3897 -3923 -3963 -3932 -3971 -4024 -4141 -4200 -4124 -4256 -4271 -4290 -4310 -4286 -4360 -4514 -4557 -4560 -4527 -4608 -4786 -4635 -4909 -4719 -4706 -4663 -4647 -4614 -4387 -4418 -4425 -4336 -4293 -4709 -4653 -4687 -4543 -4652 -3829 -2865 -2731 -3419 -4110 -4180 -4208 -4521 -4588 -4674 -4699 -4707 -4835 -4980 -5009 -4972 -4804 -4710 -4672 -4607 -4530 -4290 -2059 268 509 564 228 -637 -1389 -1451 -1345 -1367 -1760 -2432 -2789 -2760
-3370 -4252 -4471 -4530 -4613 -4740 -4733 -5058 -5111 -4977 -5029 -5145 -5260 -5215 -5092 -5057 -5063 -5067 -5065 -5060 -5070 -5057 -4899 -4659 -4701 -4711 -4686 -4769 -4813 -4974 -4994 -5015 -5028 -4959 -5056 -5117 -5066 -5045 -5044 -5041 -5064 -5115 -5109 -5103 -5011 -4926 -4899 -4872 -4871 -4752 -4619 -4591 -4494 -4410 -4349 -4279 -4241 -4085 -3957 -3882 -3826 -3585 -3481 -3322 -3161 -2944 -2792 -2871 -2975 -3086 -3227 -3349 -3431 -3499 -3597 -3698 -3831 -3961 -4064 -4179 -4250 -4283 -4306 -4323 -4343 -4347 -4336 -4314 -4303 -4281 -4177 -3987 -3968 -4078 -4273 -3935 -3571 -3552 -3561 -3352 -3195 -3151 -3142 -3019 -948 218 945 1073 860 595 471 322 76 -85 -71 -95 -88 -28 -11 -174 -1023 -2416 -3766 -4780 -5560 -5848 -6004 -6031 -6026 -5995 -5872 -5737 -5656 -5571 -5452 -5209 -5379 -5572 -5645 -5556 -5327 -5525 -5628 -5765 -5776 -5586 -5345 -5203 -5112 -5003 -4999 -4999 -4965 -4803 -4593 -4600 -4564 -4299 -4205 -3998 -3969 -3835 -3682 -3465 -3172 -2816 -2744 -2961 -2999 -3021 -3098 -3255 -3462 -3567 -3764 -3932 -4080 -4300 -4334 -4115 -4305 -4631 -4831 -4913 -4787 -4685 -4324 -3186 -3687 -4352 -4190 -4769 -4673 -4600 -4619 -4645 -4654 -4588 -4451 -4499 -5015 -4889 -4956 -5172 -5249 -5510 -5513 -5507 -5205 -5302 -4813 -4360 -3835 -3058 -3070 -2874 -3002 -2158 -2142 -2339 -2712 -2643 -1730 -2539 -2618 -2223 -2246 -2690 -3016 -1245 -872 -1414 -2179 -3434 -3837 -4060 -4219 -4402 -4527 -4544 -4550 -4554 -4389 -4033 -3799 -2982 -1760 -982 -1640 -2488 -2398 -2197 -3089 -3418 -3443 -3430 -3390 -3182 -3241 -3317 -3401 -3455 -3488 -3571 -3598 -3621 -3629 -3621 -3607 -3550 -3509 -3459 -3428 -3330 -3180 -3029 -3001 -2963 -3012 -3102 -3197 -3193 -3263 -3345 -3411 -3516 -3604 -3605 -3732 -3781 -3887 -4010 -4078 -4074 -4028 -4058 -4116 -4157 -4213 -4271 -4295 -4367 -4387 -4425 -4379 -4452 -4622 -4419 -4413 -4523 -4492 -4452 -4407 -4409 -4311 -4265 -4227 -4155 -4051 -4417 -4486 -4584 -4513 -4516 -4278 -2935 -2050 -2027 -2793 -3646 -4504 -4531 -4579 -4659 -4708 -4699 -4826 -4916 -4897 -4833 -4752 -4580 -4523 -4335 -4146 -2674 -496 -58 53 20 -483 -1297 -1530 -1708 -1765 -1922 -2316 -2780 -2939 -3049
-1452 -3266 -4695 -4783 -4954 -4984 -5089 -5142 -5194 -5123 -4983 -4947 -5000 -5006 -5036 -5045 -5030 -5022 -5021 -5027 -5050 -5047 -4972 -4782 -4693 -4661 -4713 -4677 -4683 -4729 -4822 -4943 -5002 -4967 -4873 -4935 -4943 -4913 -4851 -4823 -4859 -5036 -5017 -5130 -4954 -4894 -4797 -4579 -4587 -4501 -4440 -4438 -4374 -4350 -4276 -4212 -4195 -4027 -3946 -3866 -3712 -3509 -3377 -3271 -3073 -2856 -2746 -2951 -2985 -3116 -3242 -3381 -3527 -3606 -3684 -3795 -3944 -4089 -4179 -4268 -4318 -4358 -4389 -4398 -4402 -4395 -4391 -4377 -4364 -4359 -4366 -4084 -4114 -4260 -4059 -3869 -3849 -3842 -3845 -3898 -3789 -3610 -3577 -3172 -734 194 1044 936 844 773 853 446 216 87 -33 -100 -96 -62 -83 -409 -966 -2263 -3573 -4516 -5352 -5779 -6003 -6044 -6043 -6024 -6015 -5990 -5963 -5945 -5878 -5568 -5543 -5769 -5967 -5728 -5575 -5833 -5847 -5831 -5705 -5533 -5371 -5209 -5090 -5011 -5001 -4995 -4840 -4658 -4600 -4603 -4615 -4565 -4311 -4036 -3993 -3937 -3891 -3703 -3394 -3208 -2989 -2986 -3000 -2989 -2925 -2971 -3213 -3498 -3738 -3979 -4108 -4292 -4299 -4194 -4316 -4249 -4231 -4412 -4519 -4444 -3862 -3034 -3407 -3498 -4223 -4740 -4775 -4722 -4743 -4892 -4706 -4657 -4675 -4595 -4696 -4938 -5024 -5159 -5271 -5443 -5556 -5482 -5344 -4904 -4526 -3895 -3082 -3506 -3588 -3832 -3780 -3565 -3799 -3927 -3814 -3797 -3651 -3452 -3368 -3374 -3291 -3371 -3639 -3413 -3321 -3383 -3595 -3692 -3844 -4042 -4250 -4440 -4454 -4355 -4293 -4215 -3781 -3569 -2881 -1550 -653 -418 -245 -358 -204 -422 -1503 -2627 -3017 -3193 -3161 -3178 -3274 -3366 -3476 -3572 -3650 -3727 -3785 -3809 -3792 -3715 -3709 -3677 -3669 -3636 -3588 -3496 -3323 -3147 -3013 -2935 -2858 -2774 -2791 -2891 -2957 -3064 -3156 -3267 -3383 -3473 -3485 -3530 -3618 -3718 -3831 -3871 -3859 -3870 -3900 -3915 -4010 -4089 -4091 -4211 -4171 -4263 -4120 -4235 -4335 -4298 -4230 -4355 -4288 -4248 -4217 -4202 -4130 -4019 -3930 -3930 -3887 -4068 -4124 -4199 -4367 -4407 -4216 -3511 -2403 -1408 -1173 -2170 -3956 -4518 -4531 -4587 -4655 -4690 -4717 -4735 -4715 -4701 -4617 -4517 -4482 -4454 -4852 -2282 -1355 -86 -130 -492 -1161 -1357 -1390 -1446 -1392 -1410 -1399 -1213 -935 -625
-1013 -3592 -4746 -4985 -5061 -5137 -5213 -5252 -5249 -5199 -5072 -4970 -4894 -4974 -5040 -5005 -4983 -4982 -4996 -4977 -5051 -5050 -4997 -4893 -4784 -4714 -4732 -4696 -4724 -4725 -4753 -4726 -4756 -4742 -4678 -4596 -4674 -4716 -4611 -4603 -4639 -4827 -4846 -4926 -4957 -4938 -4850 -4641 -4504 -4433 -4354 -4305 -4221 -4094 -4027 -3950 -3914 -3883 -3833 -3770 -3521 -3470 -3408 -3254 -3054 -2924 -2868 -2958 -3030 -3147 -3286 -3474 -3572 -3630 -3715 -3860 -4028 -4100 -4181 -4274 -4346 -4417 -4439 -4505 -4507 -4513 -4503 -4487 -4477 -4440 -4472 -4466 -4464 -4508 -4279 -4133 -4137 -4081 -4034 -4008 -3917 -3776 -3860 -2182 -101 320 960 911 824 551 569 424 190 -2 -79 -111 -121 -125 -149 -314 -660 -1264 -1484 -1849 -2989 -4313 -5512 -5974 -6018 -6112 -6113 -6055 -6131 -6043 -5962 -5777 -5883 -5829 -5775 -5609 -5480 -5466 -5478 -5410 -5259 -5046 -5281 -4972 -4640 -4865 -4552 -3911 -4440 -4611 -4597 -4558 -4588 -4538 -4445 -3947 -3957 -3997 -3897 -3775 -3665 -3631 -3319 -3010 -3006 -2922 -2950 -3109 -3453 -3684 -3788 -3900 -4007 -4031 -4011 -3968 -4000 -3946 -3981 -4054 -4364 -4068 -3750 -3378 -3043 -3413 -3891 -4475 -4606 -4673 -4820 -4838 -4770 -4947 -4788 -4634 -4648 -5000 -5101 -5033 -4933 -5292 -5653 -5471 -5273 -4600 -4162 -3942 -3302 -4267 -4009 -4177 -4264 -4337 -4434 -4060 -4088 -4059 -3977 -3916 -3847 -3802 -3808 -3880 -3952 -3943 -3949 -3985 -4032 -4069 -4102 -4221 -4351 -4457 -4386 -4373 -4191 -3242 -2479 -2969 -2306 -1446 -686 -206 -76 -44 -94 -1078 -1861 -2312 -2656 -2864 -3103 -3227 -3333 -3426 -3547 -3666 -3786 -3905 -3968 -3987 -3966 -3928 -3895 -3846 -3787 -3739 -3650 -3494 -3419 -3359 -3312 -3278 -3266 -3208 -3208 -3193 -3099 -2991 -2953 -3045 -3040 -3084 -3167 -3226 -3302 -3386 -3495 -3600 -3670 -3700 -3817 -3957 -3925 -3948 -4034 -3969 -3915 -3870 -3883 -4049 -4064 -4052 -4040 -4085 -4039 -3981 -3929 -3878 -3784 -3683 -3604 -3513 -3478 -3608 -4241 -4040 -4113 -4258 -4201 -4005 -2956 -2863 -2697 -2067 -2472 -4224 -4543 -4520 -4542 -4608 -4626 -4635 -4657 -4639 -4583 -4494 -4246 -3977 -4225 -2532 -738 -146 -463 -716 -1022 -933 -908 -936 -969 -1068 -1197 -1082 -744 -478
-2810 -4013 -4148 -4387 -4993 -5186 -5402 -5384 -5240 -5170 -5093 -5057 -5046 -5054 -5051 -5022 -5017 -5010 -5006 -5005 -5012 -5027 -5028 -5015 -4945 -4796 -4690 -4647 -4440 -4403 -4463 -4564 -4556 -4526 -4436 -4502 -4584 -4528 -4468 -4446 -4464 -4523 -4594 -4699 -4809 -4908 -4848 -4643 -4475 -4397 -4328 -4254 -4064 -3912 -3920 -3792 -3637 -3631 -3512 -3484 -3381 -3200 -3074 -3086 -3082 -3040 -2807 -3015 -3094 -3190 -3382 -3559 -3622 -3689 -3818 -4018 -4098 -4139 -4202 -4253 -4310 -4388 -4364 -4442 -4495 -4602 -4639 -4619 -4584 -4582 -4457 -4535 -4513 -4449 -4456 -4370 -4356 -4260 -4155 -4067 -3915 -3721 -3668 -2197 -105 295 1307 649 598 430 246 215 18 -88 -102 -123 -143 -167 -176 -196 -239 -401 -456 -698 -1005 -1415 -2065 -3236 -3833 -4264 -4591 -4656 -4553 -4984 -5216 -4998 -4200 -3665 -3569 -3671 -4157 -4760 -4789 -4845 -5018 -5110 -5115 -5196 -5098 -4950 -5078 -4149 -3875 -4565 -4603 -4562 -4370 -4093 -4014 -4023 -4322 -4314 -4171 -4023 -3983 -3771 -3687 -3548 -3368 -3123 -3074 -3079 -3085 -2888 -2982 -3206 -3466 -3505 -3550 -3647 -3844 -3863 -3970 -4005 -4043 -3569 -3357 -3025 -4115 -3615 -4049 -4334 -4506 -4622 -4555 -4404 -4519 -4479 -4580 -4348 -4734 -4977 -4866 -4461 -4871 -5424 -5054 -5318 -4416 -4478 -4306 -3780 -4230 -4843 -4602 -4710 -4598 -4576 -4425 -4113 -4135 -4123 -4120 -4107 -4094 -4075 -4069 -4079 -4084 -4102 -4164 -4248 -4273 -4252 -4254 -4302 -4378 -4440 -4438 -4479 -4476 -3647 -2991 -1962 -1525 -1446 -1557 -735 29 98 -78 -691 -1510 -2110 -2546 -2809 -3110 -3276 -3392 -3517 -3629 -3763 -3953 -4033 -4125 -4147 -4126 -4078 -4022 -4004 -3934 -3819 -3702 -3588 -3511 -3455 -3413 -3403 -3434 -3414 -3390 -3373 -3340 -3295 -3186 -3124 -3094 -3090 -3134 -3099 -3147 -3173 -3152 -3166 -3330 -3488 -3560 -3623 -3599 -3553 -3981 -3658 -3796 -3936 -3745 -3814 -3865 -3853 -3774 -3758 -3736 -3697 -3588 -3468 -3380 -3289 -3182 -3104 -3064 -3229 -4045 -4020 -3817 -3836 -3799 -4194 -4238 -4352 -4179 -3348 -2433 -3675 -4280 -4507 -4494 -4518 -4522 -4559 -4644 -4581 -4488 -4275 -4111 -3858 -2550 -3024 -798 -479 -588 -651 -652 -394 -430 -555 -636 -917 -1316 -1080 -1077 -1641
